-33.242 24.4749 2732.42
-35.3982 23.7168 2647.79
-34.7032 24.4749 2732.42
-38.6441 22.7119 2535.59
-39.1489 22.8085 2546.38
-54.0659 14.7253 1643.96
-47.5524 18.7413 2092.31
-54.4538 15.014 1676.19
-49.7297 18.1081 2021.62
-39.447 24.7005 2757.6
-56.7116 14.4474 1612.94
-50.9589 18.3562 2049.32
-51.5068 18.3562 2049.32
-58.1233 14.37 1604.29
-41.7225 25.6459 2863.16
-43.7037 24.8148 2770.37
-44.9315 24.4749 2732.42
-45.5046 24.5872 2744.95
-46.6968 24.2534 2707.69
-47.5676 24.1441 2695.5
-48.5714 23.9286 2671.43
-49.009 24.1441 2695.5
-49.5928 24.2534 2707.69
-51.1013 23.6123 2636.12
-50.7763 24.4749 2732.42
-52.1429 23.9286 2671.43
-53.2159 23.6123 2636.12
-55.8367 21.8776 2442.45
-54.8472 23.4061 2613.1
-55.6522 23.3043 2601.74
-55.0459 24.5872 2744.95
-57.5319 22.8085 2546.38
-57.8355 23.2035 2590.48
-59.0717 22.616 2524.89
-59.8319 22.521 2514.29
-59.8261 23.3043 2601.74
-60.9362 22.8085 2546.38
-62.0747 22.2407 2482.99
-62.5941 22.4268 2503.77
-62.3789 23.6123 2636.12
-63.6596 22.8085 2546.38
-64.4068 22.7119 2535.59
-64.6957 23.3043 2601.74
-66.3415 21.7886 2432.52
-67.0445 21.7004 2422.67
-67.7912 21.5261 2403.21
-68.48 21.44 2393.6
-68.7603 22.1488 2472.73
-73.9336 12.7014 1418.01
-68.785 25.0467 2796.26
-71.1811 21.1024 2355.91
-71.68 21.44 2393.6
-72 22.3333 2493.33
-72.6971 22.2407 2482.99
-73.3884 22.1488 2472.73
-76.5301 12.9157 1441.93
-74.6444 22.4268 2503.77
-75.7088 20.5364 2292.72
-77.4468 14.2553 1591.49
-76.2963 24.8148 2770.37
-78.3505 13.8144 1542.27
-78.8293 13.0732 1459.51
-79.0698 15.5814 1739.53
-79.5467 15.1841 1695.18
-80 13.5354 1511.11
-80.402 13.4673 1503.52
-80.8939 14.9721 1671.51
-81.194 13.3333 1488.56
-81.561 13.0732 1459.51
-81.9465 13.0414 1455.96
-82.6301 14.6849 1639.45
-85.1376 24.5872 2744.95
-83.0993 12.9782 1448.91
-83.4615 12.8846 1438.46
-83.8835 13.0097 1452.43
-84.2615 12.9782 1448.91
-84.5714 12.7619 1424.76
-85.012 12.9157 1441.93
-85.3846 12.8846 1438.46
-85.6738 12.6714 1414.66
-86.0377 12.6415 1411.32
-86.4916 12.7924 1428.16
-86.7606 12.5822 1404.69
-87.1194 12.5527 1401.41
-87.5829 12.7014 1418.01
-87.8505 12.5234 1398.13
-88.1293 12.3788 1381.99
-89.8925 14.4086 1608.6
-91.261 15.7185 1754.84
-99.9005 26.6667 2977.11
-98.4889 23.8222 2659.56
-101.493 26.6667 2977.11
-102.178 26.5347 2962.38
-99.7447 22.8085 2546.38
-93.8329 15.4467 1724.5
-101.288 23.0043 2568.24
-103.167 24.2534 2707.69
-102.857 23.2035 2590.48
-103.652 23.3043 2601.74
-106.794 25.6459 2863.16
-104.304 22.616 2524.89
-106.079 23.6123 2636.12
-97.1268 15.0986 1685.63
-102.857 19.6337 2191.94
-110.047 25.1643 2809.39
-110.943 25.283 2822.64
-107.654 22.0576 2462.55
-108.082 21.8776 2442.45
-108.971 22.0576 2462.55
-108.916 21.5261 2403.21
-112.14 23.4061 2613.1
-110.569 21.7886 2432.52
-110.843 21.5261 2403.21
-115.157 24.0359 2683.41
-101.798 14.6049 1630.52
-120.396 26.5347 2962.38
-102.547 14.5257 1621.68
-120.19 25.4028 2836.02
-117.895 23.5088 2624.56
-118.428 23.4061 2613.1
-115 20.9375 2337.5
-115.765 21.0196 2346.67
-125.049 26.0194 2904.85
-105.106 14.2553 1591.49
-105.464 14.2175 1587.27
-126.923 25.7692 2876.92
-119.68 21.44 2393.6
-130.149 26.6667 2977.11
-131.741 26.6667 2977.11
-129.577 25.1643 2809.39
-132.808 26.4039 2947.78
-133.333 26.2745 2933.33
-131.111 24.8148 2770.37
-134.369 26.0194 2904.85
-121.46 19.562 2183.94
-124.651 20.7752 2319.38
-122.166 19.3502 2160.29
-136.381 25.5238 2849.52
-110.612 13.6735 1526.53
-137.358 25.283 2822.64
-137.84 25.1643 2809.39
-138.318 25.0467 2796.26
-111.919 13.5354 1511.11
-112.242 13.5013 1507.3
-112.563 13.4673 1503.52
-140.183 24.5872 2744.95
-126.761 18.8732 2107.04
-132.093 20.7752 2319.38
-139.912 23.6123 2636.12
-141.982 24.1441 2695.5
-128 18.4828 2063.45
-128.385 18.4192 2056.36
-129.103 18.4828 2063.45
-129.485 18.4192 2056.36
-129.863 18.3562 2049.32
-141.59 22.4268 2503.77
-130.27 18.1081 2021.62
-130.983 18.1695 2028.47
-142.81 22.1488 2472.73
-136.889 19.8519 2216.3
-117.488 12.9469 1445.41
-147.009 22.906 2557.26
-144.39 21.7886 2432.52
-147.797 22.7119 2535.59
-118.66 12.823 1431.58
-148.571 22.521 2514.29
-148.954 22.4268 2503.77
-119.525 12.7316 1421.38
-119.81 12.7014 1418.01
-150.083 22.1488 2472.73
-147.402 21.1024 2355.91
-147.765 21.0196 2346.67
-151.184 21.8776 2442.45
-151.545 21.7886 2432.52
-151.903 21.7004 2422.67
-149.189 20.695 2310.42
-149.538 20.6154 2301.54
-170.297 26.5347 2962.38
-122.593 12.4074 1385.19
-150.57 20.3802 2275.29
-144.33 18.4192 2056.36
-151.245 20.2264 2258.11
-138.947 16.5944 1852.63
-145.306 18.2313 2035.37
-124.201 12.2374 1366.21
-124.465 12.2096 1363.1
-173.714 25.5238 2849.52
-124.989 12.1542 1356.92
-153.529 19.7059 2200
-147.2 17.8667 1994.67
-154.161 19.562 2183.94
-142.249 16.2918 1818.84
-142.545 16.2424 1813.33
-142.462 16.0961 1797
-143.515 16.2424 1813.33
-143.423 16.0961 1797
-143.522 16 1786.27
-144.384 16.0961 1797
-144.286 15.9524 1780.95
-150.194 17.2903 1930.32
-144.852 15.858 1770.41
-145.133 15.8112 1765.19
-151.054 17.1246 1911.82
-145.497 15.6725 1749.71
-146.353 15.7647 1760
-146.239 15.6268 1744.61
-152.177 16.9085 1887.7
-150.459 16.3914 1829.97
-146.667 15.4023 1719.54
-147.32 15.4467 1724.5
-163.11 18.9399 2114.49
-194.396 25.8937 2890.82
-148.506 15.4023 1719.54
-147.989 15.1841 1695.18
-161.074 17.9866 2008.05
-164.444 18.6111 2077.78
-194.393 25.0467 2796.26
-164.966 18.4828 2063.45
-135.111 11.9111 1329.78
-136.986 12.2374 1366.21
-139.526 12.7014 1418.01
-136.555 11.9911 1338.7
-136.659 11.9376 1332.74
-138.05 12.1542 1356.92
-137.372 11.9376 1332.74
-137.472 11.8847 1326.83
-137.572 11.8322 1320.97
-138.966 12.0449 1344.72
-207.536 25.8937 2890.82
-200.181 24.2534 2707.69
-159.761 16 1786.27
-209.855 25.8937 2890.82
-160.958 16.0479 1791.62
-161.194 16 1786.27
-201.062 23.7168 2647.79
-194.191 22.2407 2482.99
-215.024 26.1463 2919.02
-209.488 24.9302 2783.26
-213.971 25.6459 2863.16
-161.86 15.5814 1739.53
-143.073 11.9376 1332.74
-164.012 15.8112 1765.19
-143.503 11.8847 1326.83
-202.553 22.8085 2546.38
-162.98 15.3582 1714.61
-202.869 22.616 2524.89
-211.892 24.1441 2695.5
-209.123 23.5088 2624.56
-164.571 15.3143 1709.71
-189.011 19.6337 2191.94
-165 15.2273 1700
-209.655 23.1034 2579.31
-212.632 23.5088 2624.56
-164.916 14.9721 1671.51
-165.125 14.9304 1666.85
-165.333 14.8889 1662.22
-167.232 15.1412 1690.4
-190.463 19.0747 2129.54
-166.667 14.8889 1662.22
-227.925 25.283 2822.64
-166.356 14.6849 1639.45
-214.237 22.7119 2535.59
-212.116 22.2407 2482.99
-212.231 22.1488 2472.73
-212.346 22.0576 2462.55
-205.759 20.856 2328.4
-228.311 24.4749 2732.42
-169.425 14.6849 1639.45
-228.416 24.2534 2707.69
-228.468 24.1441 2695.5
-206.412 20.458 2283.97
-213.12 21.44 2393.6
-217.613 22.0576 2462.55
-222.979 22.8085 2546.38
-215.582 21.5261 2403.21
-207.041 20.0749 2241.2
-207.164 20 2232.84
-214.275 21.0196 2346.67
-207.407 19.8519 2216.3
-215.529 21.0196 2346.67
-248.544 26.0194 2904.85
-178.81 15.1841 1695.18
-159.276 12.1267 1353.85
-185.389 16.0479 1791.62
-179.326 15.0562 1680.9
-245.981 25.0467 2796.26
-202.192 18.3562 2049.32
29.0909 16.7273 1813.33
13.822 14.4503 1566.49
46.0777 19.5053 2114.49
66.7769 22.8099 2472.73
56.5251 21.3127 2310.42
51.8352 20.6742 2241.2
75.7333 24.5333 2659.56
69.6996 23.691 2568.24
69.6552 23.7931 2579.31
7.0529 13.9043 1507.3
70.2183 24.1048 2613.1
74.9321 24.9774 2707.69
6.49746 14.0102 1518.78
70.0885 24.4248 2647.79
66.7826 24 2601.74
74.8387 25.4378 2757.6
55.3846 22.3482 2422.67
27.0096 17.7492 1924.12
80 26.6667 2890.82
37.7143 19.7143 2137.14
37.5627 19.7849 2144.8
45.5385 21.2308 2301.54
36.8345 19.8561 2152.52
37.1014 20 2168.12
36.5217 20 2168.12
45 21.5625 2337.5
36.2044 20.146 2183.94
35.2 20.0727 2176
35.0365 20.146 2183.94
24.186 18.3389 1988.04
14.5455 16.7273 1813.33
54.9565 24 2601.74
53.1034 23.7931 2579.31
20.3922 18.0392 1955.56
20.1967 18.0984 1961.97
20 18.1579 1968.42
13.6223 17.0898 1852.63
19.6026 18.2781 1981.46
45.7143 23.1933 2514.29
24.0559 19.3007 2092.31
32.9771 21.0687 2283.97
14.0575 17.6358 1911.82
13.8462 17.6923 1917.95
40.3306 22.8099 2472.73
21.9718 19.4366 2107.04
43.0769 23.5897 2557.26
49.009 24.8649 2695.5
42.7586 23.7931 2579.31
41.5451 23.691 2568.24
40.3419 23.5897 2557.26
40.1717 23.691 2568.24
39.485 23.691 2568.24
41.4035 24.2105 2624.56
38.6207 23.7931 2579.31
36.4255 23.4894 2546.38
37.7489 23.8961 2590.48
34.0928 23.2911 2524.89
32.9412 23.1933 2514.29
34.6781 23.691 2568.24
33.9914 23.691 2568.24
46.3158 26.4115 2863.16
-5.24217 15.7265 1704.84
47.2195 26.9268 2919.02
-4.65116 16.0465 1739.53
31.0345 23.7931 2579.31
-4.92669 16.1877 1754.84
29.6552 23.7931 2579.31
42.1256 26.6667 2890.82
31.1504 24.4248 2647.79
28.9956 24.1048 2613.1
41.5686 27.0588 2933.33
26.2069 23.7931 2579.31
25.5172 23.7931 2579.31
24.3777 23.691 2568.24
21.5126 23.1933 2514.29
23.4483 23.7931 2579.31
20.5907 23.2911 2524.89
22.5108 23.8961 2590.48
16.7901 22.716 2462.55
-8.56269 16.8807 1829.97
32.6214 26.7961 2904.85
26.1751 25.4378 2757.6
15.7322 23.0962 2503.77
28.7081 26.4115 2863.16
10.6024 22.1687 2403.21
13.3333 23 2493.33
-9.62025 17.4684 1893.67
-5.40541 18.6486 2021.62
14.0773 23.691 2568.24
9.18033 22.623 2452.46
4.70588 21.6471 2346.67
10.4641 23.2911 2524.89
6.50407 22.439 2432.52
10.6438 23.691 2568.24
3.50598 21.992 2384.06
2.53968 21.9048 2374.6
9.35065 23.8961 2590.48
-4.42804 20.369 2208.12
8.34783 24 2601.74
7.27273 23.8961 2590.48
-6.19926 20.369 2208.12
4.0678 23.3898 2535.59
5.56522 24 2601.74
2.01681 23.1933 2514.29
0.33195 22.9046 2482.99
-7.81955 20.7519 2249.62
1.36752 23.5897 2557.26
-15.3425 18.9041 2049.32
-16.5424 18.7119 2028.47
5.13761 25.3211 2744.95
-18.4615 18.4615 2001.34
-39.1946 12.349 1338.7
-0.352423 24.3172 2636.12
1.45455 25.0909 2720
-22.1498 17.9805 1949.19
-22.8571 17.9221 1942.86
-23.5599 17.8641 1936.57
-7.08861 23.2911 2524.89
-2.18182 25.0909 2720
-2.90909 25.0909 2720
-3.63636 25.0909 2720
-4.70588 24.9774 2707.69
-5.09091 25.0909 2720
-1.91388 26.4115 2863.16
-10.9402 23.5897 2557.26
-8.57143 24.6429 2671.43
-37.5335 14.7989 1604.29
-8.72727 25.0909 2720
-42.6923 13.2692 1438.46
-9.86301 25.2055 2732.42
-28.2993 18.7755 2035.37
-12.8571 24.6429 2671.43
-12.973 24.8649 2695.5
-15.4386 24.2105 2624.56
-35.474 16.8807 1829.97
-20.4959 22.8099 2472.73
-36.8485 16.7273 1813.33
-24.127 21.9048 2374.6
-23.1837 22.5306 2442.45
-18.8444 24.5333 2659.56
-26.2451 21.8182 2365.22
-27.5 21.5625 2337.5
-40.4762 16.4286 1780.95
-41.0682 16.3798 1775.67
-20.8219 25.2055 2732.42
-21.0138 25.4378 2757.6
-21.4815 25.5556 2770.37
-22.4885 25.4378 2757.6
-23.4862 25.3211 2744.95
-24.4749 25.2055 2732.42
-44.8094 16.1877 1754.84
-27.6106 24.4248 2647.79
-28.3186 24.4248 2647.79
-27.3973 25.2055 2732.42
-28.3636 25.0909 2720
-48.3616 15.5932 1690.4
-48.9014 15.5493 1685.63
-49.5238 15.4622 1676.19
-27.7073 26.9268 2919.02
-32 25.0909 2720
-57.0925 12.1586 1318.06
-51.5556 15.3333 1662.22
-33.7615 25.3211 2744.95
-38.3193 23.1933 2514.29
-52.7374 15.419 1671.51
-53.1844 15.419 1671.51
-53.6313 15.419 1671.51
-44.5802 21.0687 2283.97
-38.1651 25.3211 2744.95
-46.6914 20.5204 2224.54
-56.0218 15.0409 1630.52
-40.1843 25.4378 2757.6
-49.0511 20.146 2183.94
-57.1429 15.1648 1643.96
-40.3883 26.7961 2904.85
-42.963 25.5556 2770.37
-62.1005 12.6027 1366.21
-47.7311 23.1933 2514.29
-45.0233 25.6744 2783.26
-46.5455 25.0909 2720
-47.2727 25.0909 2720
-47.7064 25.3211 2744.95
-49.148 24.7534 2683.41
-49.8655 24.7534 2683.41
-51.2281 24.2105 2624.56
-48.7805 26.9268 2919.02
-51.1111 25.5556 2770.37
-53.2159 24.3172 2636.12
-52.844 25.3211 2744.95
-54.5133 24.4248 2647.79
-55.3304 24.3172 2636.12
-54.4601 25.9155 2809.39
-57.6271 23.3898 2535.59
-58.3966 23.2911 2524.89
-58.8034 23.5897 2557.26
-59.9163 23.0962 2503.77
-60.339 23.3898 2535.59
-60.2643 24.3172 2636.12
-62.1488 22.8099 2472.73
-62.6667 23 2493.33
-63.3333 23 2493.33
-63.3766 23.8961 2590.48
-64.1379 23.7931 2579.31
-64.2152 24.7534 2683.41
-65 24.6429 2671.43
-65.7778 24.5333 2659.56
-67.84 22.08 2393.6
-68.3401 22.3482 2422.67
-69.2063 21.9048 2374.6
-68.9177 23.8961 2590.48
-74.3662 12.9577 1404.69
-70.3863 23.691 2568.24
-71.7787 21.8182 2365.22
-72.4111 21.8182 2365.22
-75.8294 13.0806 1418.01
-76.0298 13.6973 1484.86
-76.4356 13.6634 1481.19
-76.8395 13.6296 1477.53
-75.4839 22.2581 2412.9
-77.3699 15.1233 1639.45
-77.7591 15.4622 1676.19
-78.3069 14.6032 1583.07
-78.7467 14.4125 1562.4
-79.1837 14.0816 1526.53
-79.5455 15.6818 1700
-80 15.6818 1700
-80.4457 15.376 1666.85
-80.804 13.8693 1503.52
-81.337 15.376 1666.85
-81.592 13.7313 1488.56
-81.9753 13.6296 1477.53
-82.3645 13.5961 1473.89
-82.7518 13.5627 1470.27
-83.0918 13.3333 1445.41
-83.4699 13.3012 1441.93
-83.8929 13.4307 1455.96
-84.2206 13.2374 1435.01
-84.6489 13.3656 1448.91
-85.0242 13.3333 1445.41
-85.3976 13.3012 1441.93
-85.7692 13.2692 1438.46
-86.052 13.0496 1414.66
-86.5072 13.2057 1431.58
-86.8735 13.1742 1428.16
-87.1529 12.9882 1408
-87.601 13.1116 1421.38
-87.8689 12.9274 1401.41
-88.1106 12.7189 1378.8
-89.4118 14.1176 1530.43
-96.6957 24 2601.74
-97.5439 24.2105 2624.56
-92.1994 16.1877 1754.84
-101.386 27.3267 2962.38
-102.069 27.1921 2947.78
-100.714 24.6429 2671.43
-99.6721 22.623 2452.46
-100.412 22.716 2462.55
-103.167 24.9774 2707.69
-101.909 22.9046 2482.99
-95.5874 15.8166 1714.61
-96 15.7714 1709.71
-107.299 26.1611 2836.02
-107.407 25.5556 2770.37
-97.1751 15.5932 1690.4
-106.553 23.4894 2546.38
-107.35 23.5897 2557.26
-98.427 15.5056 1680.9
-98.615 15.2909 1657.62
-109.913 24 2601.74
-99.61 15.376 1666.85
-109.388 22.5306 2442.45
-109.919 22.439 2432.52
-110.445 22.3482 2422.67
-110.968 22.2581 2412.9
-101.538 15.1648 1643.96
-115.714 24.6429 2671.43
-116.106 24.4248 2647.79
-117.477 24.8649 2695.5
-102.981 14.9593 1621.68
-119.273 25.0909 2720
-114.375 21.5625 2337.5
-104.086 14.8387 1608.6
-104.45 14.7989 1604.29
-125.268 26.9268 2919.02
-105.173 14.72 1595.73
-120.851 23.4894 2546.38
-121.356 23.3898 2535.59
-106.243 14.6032 1583.07
-106.596 14.5646 1578.89
-122.845 23.0962 2503.77
-107.368 14.5263 1574.74
-123.817 22.9046 2482.99
-130.093 25.7944 2796.26
-130.605 25.6744 2783.26
-131.111 25.5556 2770.37
-109.016 14.3005 1550.26
-121.919 20.369 2208.12
-124.479 21.3127 2310.42
-124.923 21.2308 2301.54
-110.437 14.1902 1538.3
-128 22.08 2393.6
-128.446 21.992 2384.06
-135 24.6429 2671.43
-135.467 24.5333 2659.56
-112.081 14.0102 1518.78
-136.388 24.3172 2636.12
-136.842 24.2105 2624.56
-137.293 24.1048 2613.1
-113.283 13.8346 1499.75
-113.6 13.8 1496
-113.915 13.7656 1492.27
-114.229 13.7313 1488.56
-114.627 13.7313 1488.56
-128.385 18.9691 2056.36
-129.103 19.0345 2063.45
-129.147 18.8396 2042.32
-129.524 18.7755 2035.37
-147.523 25.3211 2744.95
-130.612 18.7755 2035.37
-130.983 18.7119 2028.47
-148.778 24.9774 2707.69
-136.679 20.369 2208.12
-117.579 13.3656 1448.91
-117.966 13.3656 1448.91
-137.81 20.146 2183.94
-150.796 24.4248 2647.79
-151.189 24.3172 2636.12
-151.579 24.2105 2624.56
-151.965 24.1048 2613.1
-119.619 13.1429 1424.76
-119.905 13.1116 1421.38
-120.19 13.0806 1418.01
-120.473 13.0496 1414.66
-141.06 19.5053 2114.49
-141.408 19.4366 2107.04
-154.576 23.3898 2535.59
-148.837 21.3953 2319.38
-121.869 12.8972 1398.13
-149.538 21.2308 2301.54
-149.885 21.1494 2292.72
-122.691 12.8074 1388.4
-150.57 20.9886 2275.29
-144.11 18.9041 2049.32
-123.603 12.7483 1381.99
-139.5 17.25 1870
-124.037 12.6606 1372.48
-145.405 18.6486 2021.62
-158.71 22.2581 2412.9
-124.829 12.574 1363.1
-125.091 12.5455 1360
-144.103 17.6923 1917.95
-125.714 12.517 1356.92
-160.316 21.8182 2365.22
-126.23 12.4605 1350.79
-126.486 12.4324 1347.75
-142.462 16.5766 1797
-143.133 16.6265 1802.41
-143.045 16.4776 1786.27
-143.904 16.5766 1797
-144 16.4776 1786.27
-128 12.2667 1329.78
-144.762 16.4286 1780.95
-145.045 16.3798 1775.67
-144.751 16.1877 1754.84
-190.099 27.3267 2962.38
-190.345 27.1921 2947.78
-145.581 16.0465 1739.53
-151.672 17.4132 1887.7
-146.127 15.9538 1729.48
-146.977 16.0465 1739.53
-147.052 15.9538 1729.48
-152.773 17.1963 1864.17
-160 18.7755 2035.37
-166.423 20.146 2183.94
-194.615 26.5385 2876.92
-153.846 16.9846 1841.23
-148.636 15.6818 1700
-154.373 16.8807 1829.97
-193.86 25.6744 2783.26
-197.333 26.2857 2849.52
-135.605 12.3767 1341.7
-137.248 12.6606 1372.48
-136.303 12.294 1332.74
-205.941 27.3267 2962.38
-160 17.25 1870
-160.249 17.1963 1864.17
-159.509 16.9325 1835.58
-159.755 16.8807 1829.97
-160 16.8293 1824.39
-160.488 16.8293 1824.39
-160.729 16.7781 1818.84
-188.618 22.439 2432.52
-190.164 22.623 2452.46
-186.457 21.7323 2355.91
-186.667 21.6471 2346.67
-189.44 22.08 2393.6
-190.968 22.2581 2412.9
-187.287 21.3953 2319.38
-162.367 16.3314 1770.41
-207.854 25.2055 2732.42
-220.896 27.4627 2977.11
-196.245 22.5306 2442.45
-188.485 20.9091 2266.67
-188.679 20.8302 2258.11
-221.268 26.9268 2919.02
-196.948 22.1687 2403.21
-164.38 15.9078 1724.5
-164.598 15.8621 1719.54
-221.627 26.4115 2863.16
-165.272 15.8166 1714.61
-190 20.2941 2200
-190.183 20.2198 2191.94
-190.365 20.146 2183.94
-190.545 20.0727 2176
-191.127 20.0727 2176
-166.292 15.5056 1680.9
-210.295 23.2911 2524.89
-166.704 15.419 1671.51
-222.466 25.2055 2732.42
-199.24 20.9886 2275.29
-192.171 19.6441 2129.54
-191.943 19.5053 2114.49
-167.713 15.2066 1648.48
-211.148 22.623 2452.46
-169.086 15.2909 1657.62
-168.306 15.082 1634.97
-223.084 24.3172 2636.12
-168.696 15 1626.09
-193.103 19.0345 2063.45
-169.565 15 1626.09
-206.412 21.0687 2283.97
-195.958 19.2334 2085.02
-193.741 18.7755 2035.37
-223.59 23.5897 2557.26
-212.392 21.6471 2346.67
-212.5 21.5625 2337.5
-212.607 21.4786 2328.4
-212.713 21.3953 2319.38
-171.005 14.6032 1583.07
-250.246 27.1921 2947.78
-180.347 15.9538 1729.48
-182.287 16.1877 1754.84
-182.157 16.0933 1744.61
-159.458 12.4605 1350.79
-181.902 15.9078 1724.5
-233.766 23.8961 2590.48
-171.722 14.1902 1538.3
31.4551 17.5851 1852.63
15.0663 15.0663 1587.27
24.6334 16.6569 1754.84
20.9091 16.1364 1700
64.918 23.2787 2452.46
63.6735 23.1837 2442.45
64.1975 23.3745 2462.55
62.9508 23.2787 2452.46
64.0664 23.5685 2482.99
68.3262 24.3777 2568.24
70.8772 24.9123 2624.56
70.1754 24.9123 2624.56
49.5817 21.597 2275.29
68.1223 24.8035 2613.1
71.3901 25.4709 2683.41
63.5897 24.2735 2557.26
66.0262 24.8035 2613.1
24.6541 17.8616 1881.76
28.9474 18.6842 1968.42
38.5612 20.4317 2152.52
38.4116 20.5054 2160.29
75.4286 27.0476 2849.52
38.1091 20.6545 2176
36.259 20.4317 2152.52
37.8022 20.8059 2191.94
31.4983 19.7909 2085.02
37.4908 20.9594 2208.12
36.4706 20.8824 2200
36.31 20.9594 2208.12
40.6154 21.8462 2301.54
14.8328 17.2644 1818.84
8.93983 16.2751 1714.61
55.4386 24.9123 2624.56
21.7219 18.8079 1981.46
8.3237 16.4162 1729.48
52.7511 24.8035 2613.1
23.9175 19.5189 2056.36
20.9396 19.0604 2008.05
48.412 24.3777 2568.24
12.7103 17.6947 1864.17
7.05882 16.7059 1760
43.1799 23.7657 2503.77
40.4938 23.3745 2462.55
41.841 23.7657 2503.77
40.166 23.5685 2482.99
31.1969 21.9305 2310.42
61.0837 27.9803 2947.78
42.7586 24.4828 2579.31
41.5451 24.3777 2568.24
40.3419 24.2735 2557.26
40.6897 24.4828 2579.31
38.4681 24.1702 2546.38
37.7872 24.1702 2546.38
38.1116 24.3777 2568.24
-4.41989 15.6906 1653.04
36.2393 24.2735 2557.26
36.0515 24.3777 2568.24
35.8621 24.4828 2579.31
35.1724 24.4828 2579.31
32.5424 24.0678 2535.59
32.8205 24.2735 2557.26
31.1864 24.0678 2535.59
31.9313 24.3777 2568.24
47.0588 27.8431 2933.33
30.5579 24.3777 2568.24
32.7753 25.022 2636.12
29.6552 24.4828 2579.31
28.4979 24.3777 2568.24
34.1818 25.8182 2720
40 27.3077 2876.92
-6.4095 16.8546 1775.67
25.7511 24.3777 2568.24
24.1702 24.1702 2546.38
22.1849 23.8655 2514.29
40.199 28.2587 2977.11
38.607 28.2587 2977.11
30.1395 26.4186 2783.26
27.3973 25.9361 2732.42
26.1818 25.8182 2720
21.7544 24.9123 2624.56
19.3103 24.4828 2579.31
14.5455 23.4711 2472.73
17.094 24.2735 2557.26
17.2414 24.4828 2579.31
14.5148 23.9662 2524.89
13.4454 23.8655 2514.29
13.9574 24.1702 2546.38
10.2058 23.3745 2462.55
6.00791 22.4506 2365.22
8.52459 23.2787 2452.46
12.0172 24.3777 2568.24
12.1212 24.5887 2590.48
6.55738 23.2787 2452.46
5.20325 23.0894 2432.52
4.55285 23.0894 2432.52
-2.69663 21.2734 2241.2
-3.58209 21.194 2232.84
-14.6624 18.2637 1924.12
6.89655 24.4828 2579.31
5.83691 24.3777 2568.24
-6.24535 21.1152 2224.54
5.19481 24.5887 2590.48
4.86957 24.6957 2601.74
-6.10687 21.6794 2283.97
3.47826 24.6957 2601.74
-17.1617 18.7459 1974.92
-13.986 19.8601 2092.31
1.74672 24.8035 2613.1
-18.543 18.8079 1981.46
6.38498 26.6667 2809.39
-19.802 18.7459 1974.92
1.07623 25.4709 2683.41
-21.2459 18.623 1961.97
-2.44541 24.8035 2613.1
-4.46352 24.3777 2568.24
-0.727273 25.8182 2720
4.29268 27.7073 2919.02
-1.10599 26.1751 2757.6
-2.90909 25.8182 2720
-4.32432 25.5856 2695.5
-5.71429 25.3571 2671.43
-27.5159 18.0892 1905.73
-11.4286 23.8655 2514.29
-7.85714 25.3571 2671.43
-7.27273 25.8182 2720
-8 25.8182 2720
-9.36937 25.5856 2695.5
-27.3898 19.2542 2028.47
-10.1818 25.8182 2720
-12.4444 25.2444 2659.56
-10.6912 26.1751 2757.6
-19.7571 22.996 2422.67
-17.8903 23.9662 2524.89
-34.7826 17.6398 1858.39
-19.749 23.7657 2503.77
-15.5656 25.7014 2707.69
-21.5768 23.5685 2482.99
-25.625 22.1875 2337.5
-26.4591 22.1012 2328.4
-39.0361 17.1084 1802.41
-27.907 22.0155 2319.38
-19.3607 25.9361 2732.42
-48.4615 13.6538 1438.46
-48.4672 13.82 1455.96
-42.5731 16.6082 1749.71
-19.5215 27.177 2863.16
-23.2727 25.8182 2720
-23.7443 25.9361 2732.42
-22.6415 26.7925 2822.64
-24.9541 26.055 2744.95
-23.0769 27.3077 2876.92
-28.0889 25.2444 2659.56
-28.5714 25.3571 2671.43
-28.1279 25.9361 2732.42
-48.0912 16.1823 1704.84
-48.6364 16.1364 1700
-49.0028 16.1823 1704.84
-49.7175 16.0452 1690.4
-32.2172 25.7014 2707.69
-50.6215 16.0452 1690.4
-51.3966 15.8659 1671.51
-54.3511 14.4529 1522.65
-44.4444 20.3584 2144.8
-52.5843 15.9551 1680.9
-52.8045 16.0907 1695.18
-44.7761 21.194 2232.84
-48.7542 19.1246 2014.81
-38.733 25.7014 2707.69
-55.4521 15.5616 1639.45
-43.0252 23.8655 2514.29
-56 15.7778 1662.22
-44.6667 23.6667 2493.33
-41.8349 26.055 2744.95
-42.0465 26.4186 2783.26
-47.7419 22.9032 2412.9
-59.1489 15.1064 1591.49
-59.4102 15.2279 1604.29
-45.5046 26.055 2744.95
-46.5455 25.8182 2720
-46.1972 26.6667 2809.39
-48.2883 25.5856 2695.5
-45.9406 28.1188 2962.38
-50 25.3571 2671.43
-49.7696 26.1751 2757.6
-51.5556 25.2444 2659.56
-50.566 26.7925 2822.64
-53.3333 24.9123 2624.56
-51.5385 27.3077 2876.92
-52.4402 27.177 2863.16
-54.8879 25.4709 2683.41
-54.4601 26.6667 2809.39
-57.2414 24.4828 2579.31
-55.9624 26.6667 2809.39
-57.4545 25.8182 2720
-57.8802 26.1751 2757.6
-58.7156 26.055 2744.95
-68.5714 14.4898 1526.53
-68.9796 14.4898 1526.53
-61.0046 25.9361 2732.42
-69.8734 14.3797 1514.94
-70.303 14.3434 1511.11
-64.856 23.3745 2462.55
-65.5144 23.3745 2462.55
-65.8228 23.9662 2524.89
-66.9919 23.0894 2432.52
-72.419 14.1646 1492.27
-72.8358 14.1294 1488.56
-68.7137 23.5685 2482.99
-69.7189 22.8112 2403.21
-70.1235 23.3745 2462.55
-69.3839 26.9194 2836.02
-71.2605 23.8655 2514.29
-75.3056 13.8875 1463.08
-73.0709 22.3622 2355.91
-76.1353 13.7198 1445.41
-76.5133 13.753 1448.91
-76.8932 13.7864 1452.43
-75.6757 21.9305 2310.42
-77.4935 14.8303 1562.4
-77.7716 15.8217 1666.85
-78.2796 15.2688 1608.6
-78.7629 14.6392 1542.27
-79.1667 14.7917 1558.33
-79.5918 14.4898 1526.53
-80 16.1364 1700
-80.4457 15.8217 1666.85
-80.806 14.3073 1507.3
-81.203 14.2356 1499.75
-81.5842 14.0594 1481.19
-81.9656 13.9558 1470.27
-84.424 26.1751 2757.6
-85.1613 26.1751 2757.6
-83.0993 13.753 1448.91
-83.4783 13.7198 1445.41
-83.8554 13.6867 1441.93
-87.9638 25.7014 2707.69
-84.6043 13.6211 1435.01
-84.9761 13.5885 1431.58
-85.3461 13.5561 1428.16
-90.7143 25.3571 2671.43
-91.3778 25.2444 2659.56
-92.0354 25.1327 2647.79
-86.8085 13.4279 1414.66
-87.1698 13.3962 1411.32
-93.9738 24.8035 2613.1
-87.7598 13.1178 1381.99
-88.1481 13.1481 1385.19
-90.1377 15.6474 1648.48
-91.1953 16.5598 1744.61
-91.7302 16.6569 1754.84
-100.194 27.5728 2904.85
-98.0753 23.7657 2503.77
-101.538 27.3077 2876.92
-93.5277 16.5598 1744.61
-102.857 27.0476 2849.52
-103.507 26.9194 2836.02
-104.151 26.7925 2822.64
-104.789 26.6667 2809.39
-95.4986 16.1823 1704.84
-95.9091 16.1364 1700
-106.667 26.2963 2770.37
-105.852 24.8035 2613.1
-107.89 26.055 2744.95
-97.5281 15.9551 1680.9
-97.9272 15.9104 1676.19
-108.646 24.8035 2613.1
-113.267 28.1188 2962.38
-108.082 23.1837 2442.45
-108.502 22.996 2422.67
-99.9446 15.7341 1657.62
-100.444 15.7778 1662.22
-100.831 15.7341 1657.62
-101.099 15.6044 1643.96
-111.235 22.6295 2384.06
-114.783 24.6957 2601.74
-115.325 24.5887 2590.48
-118.879 26.5421 2796.26
-119.812 26.6667 2809.39
-103.288 15.31 1612.94
-117.447 24.1702 2546.38
-104.151 15.31 1612.94
-104.385 15.1872 1600
-104.747 15.1467 1595.73
-105.106 15.1064 1591.49
-116.502 21.597 2275.29
-116.97 21.5152 2266.67
-128.627 27.8431 2933.33
-106.526 14.9474 1574.74
-118.352 21.2734 2241.2
-118.806 21.194 2232.84
-122.927 23.0894 2432.52
-107.917 14.7917 1558.33
-133.861 28.1188 2962.38
-124.337 22.8112 2403.21
-121.176 20.8824 2200
-123.861 21.9305 2310.42
-121.588 20.5054 2160.29
-110.181 14.677 1546.25
-126.614 22.3622 2355.91
-110.848 14.6015 1538.3
-111.179 14.5641 1534.36
-138.389 26.9194 2836.02
-133.793 24.4828 2579.31
-139.343 26.6667 2809.39
-129.231 21.8462 2301.54
-112.563 14.2714 1503.52
-140.741 26.2963 2770.37
-113.367 14.2714 1503.52
-113.684 14.2356 1499.75
-142.1 25.9361 2732.42
-137.333 23.6667 2493.33
-114.455 14.0594 1481.19
-128.385 19.5189 2056.36
-128.935 19.5189 2056.36
-129.315 19.4521 2049.32
-133.727 20.9594 2208.12
-115.99 13.8875 1463.08
-130.27 19.1892 2021.62
-116.863 13.9216 1466.67
-131.007 19.0604 2008.05
-135.652 20.5797 2168.12
-136.029 20.5054 2160.29
-117.783 13.6867 1441.93
-147.983 24.3777 2568.24
-118.369 13.6211 1435.01
-118.66 13.5885 1431.58
-149.153 24.0678 2535.59
-133.856 18.5621 1955.56
-138.592 20 2107.04
-119.81 13.4597 1418.01
-120.095 13.4279 1414.66
-139.652 19.7909 2085.02
-120.659 13.3647 1408
-140.346 19.654 2070.59
-152.131 23.2787 2452.46
-147.019 21.434 2258.11
-121.772 13.2401 1394.87
-122.047 13.2093 1391.63
-148.06 21.194 2232.84
-122.593 13.1481 1385.19
-142.703 19.1892 2021.62
-143.03 19.1246 2014.81
-154.921 22.5397 2374.6
-123.67 13.0275 1372.48
-123.936 12.9977 1369.34
-139.753 17.5309 1846.91
-144.636 18.8079 1981.46
-124.727 12.9091 1360
-151.367 20.4317 2152.52
-140.606 17.2121 1813.33
-141.463 17.3171 1824.39
-146.189 18.5016 1949.19
-126.335 12.8507 1353.85
-126.382 12.764 1344.72
-126.847 12.7928 1347.75
-142.754 17.006 1791.62
-127.143 12.6786 1335.71
-142.959 16.8047 1770.41
-127.644 12.6222 1329.78
-146.873 17.5851 1852.63
-146.748 17.4233 1835.58
-128.389 12.5386 1320.97
-128.634 12.511 1318.06
-128.879 12.4835 1315.16
-150 17.75 1870
-150.28 17.6947 1864.17
-150.559 17.6398 1858.39
-148.709 17.0571 1797
-192.941 27.8431 2933.33
-146.859 16.3689 1724.5
-151.656 17.4233 1835.58
-193.077 27.3077 2876.92
-194.951 27.5728 2904.85
-152.462 17.2644 1818.84
-152.727 17.2121 1813.33
-152.991 17.1601 1807.85
-153.253 17.1084 1802.41
-195.472 26.7925 2822.64
-159.228 18.2637 1924.12
-157.5 17.75 1870
-187.586 24.4828 2579.31
-204.975 28.2587 2977.11
-158.519 17.5309 1846.91
-158.528 17.4233 1835.58
-191.515 24.5887 2590.48
-204.615 27.3077 2876.92
-191.931 24.3777 2568.24
-138.834 12.7354 1341.7
-192.34 24.1702 2546.38
-204.695 26.6667 2809.39
-188.178 22.996 2422.67
-185.827 22.3622 2355.91
-188.594 22.8112 2403.21
-185.837 22.1012 2328.4
-189.004 22.6295 2384.06
-186.255 21.9305 2310.42
-187.704 22.1012 2328.4
-187.907 22.0155 2319.38
-206.126 25.5856 2695.5
-162.099 16.5598 1744.61
-219.507 27.9803 2947.78
-187.879 21.5152 2266.67
-196.898 23.1837 2442.45
-206.872 25.022 2636.12
-188.464 21.2734 2241.2
-191.145 21.6794 2283.97
-165.116 16.5116 1739.53
-189.442 21.1152 2224.54
-188.824 20.8824 2200
-198.095 22.5397 2374.6
-207.863 24.2735 2557.26
-208 24.1702 2546.38
-208.136 24.0678 2535.59
-190.145 20.5797 2168.12
-190.725 20.5797 2168.12
-192.941 20.8824 2200
-190.286 20.2857 2137.14
-191.254 20.3584 2144.8
-199.54 21.7625 2292.72
-221.261 25.5856 2695.5
-209.712 23.3745 2462.55
-191.158 19.9298 2099.65
-192.113 20 2107.04
-191.111 19.7222 2077.78
-169.582 15.8217 1666.85
-197.956 20.7299 2183.94
-224.356 25.2444 2659.56
-199.124 20.7299 2183.94
-205.191 21.6794 2283.97
-243.98 28.2587 2977.11
-177.412 16.7059 1760
-212.063 22.5397 2374.6
-201.6 20.6545 2176
-211.25 22.1875 2337.5
-201.877 20.5054 2160.29
-210.965 21.9305 2310.42
-211.077 21.8462 2301.54
-193.377 18.8079 1981.46
-233.571 25.3571 2671.43
-178.743 16.2286 1709.71
-187.16 17.5309 1846.91
-184.119 16.9552 1786.27
-186.182 17.2121 1813.33
-183.529 16.7059 1760
-182.493 16.4638 1734.49
-213.534 21.3534 2249.62
-217.231 21.8462 2301.54
36.5049 18.8997 1936.57
39.8662 19.5318 2001.34
46.9751 20.7829 2129.54
26.988 17.5904 1802.41
71.7597 25.0644 2568.24
67.8992 24.5378 2514.29
47.4182 21.2364 2176
71.6522 25.3913 2601.74
25.5319 17.7508 1818.84
47.0588 21.4706 2200
72.8889 25.9556 2659.56
46.8148 21.6296 2216.3
62 24.3333 2493.33
67.4783 25.3913 2601.74
66.7826 25.3913 2601.74
68.6726 25.8407 2647.79
11.1172 15.9128 1630.52
42.3529 21.4706 2200
31.8919 19.7297 2021.62
45.3232 22.2053 2275.29
36.3121 20.7092 2121.99
39.1241 21.3139 2183.94
44.9231 22.4615 2301.54
37.1014 21.1594 2168.12
37.8022 21.3919 2191.94
30.7266 20.2076 2070.59
37.4908 21.5498 2208.12
37.3333 21.6296 2216.3
35.8824 21.4706 2200
42.5 22.8125 2337.5
56.2445 25.5022 2613.1
22.1053 19.2105 1968.42
20.2597 18.961 1942.86
52.4138 25.1724 2579.31
21.5282 19.402 1988.04
52.7511 25.5022 2613.1
52.0524 25.5022 2613.1
50.7826 25.3913 2601.74
20.7407 19.6633 2014.81
19.2 19.4667 1994.67
44.3697 24.5378 2514.29
48 25.3913 2601.74
13.8462 18.7179 1917.95
44.4444 24.9573 2557.26
2.50712 16.6382 1704.84
37.551 23.8367 2442.45
11.2102 18.5987 1905.73
42.2318 25.0644 2568.24
42.5974 25.2814 2590.48
40.3419 24.9573 2557.26
40.1717 25.0644 2568.24
38.9744 24.9573 2557.26
36.7932 24.6414 2524.89
-4.18733 16.0882 1648.48
-4.41989 16.1326 1653.04
36.7382 25.0644 2568.24
36.0515 25.0644 2568.24
33.8983 24.7458 2535.59
49.0821 28.2126 2890.82
-4.75921 16.5439 1695.18
48.1553 28.3495 2904.85
-6.29213 16.4045 1680.9
32.4138 25.1724 2579.31
29.8305 24.7458 2535.59
43.2536 27.9426 2863.16
30.3448 25.1724 2579.31
29.6552 25.1724 2579.31
30.393 25.5022 2613.1
30.6608 25.7269 2636.12
35.5556 27.037 2770.37
26.8966 25.1724 2579.31
23.5294 24.5378 2514.29
22.4268 24.4351 2503.77
30.0452 26.4253 2707.69
21.5126 24.5378 2514.29
6.33094 21.0072 2152.52
26.4286 26.0714 2671.43
21.6309 25.0644 2568.24
19.661 24.7458 2535.59
25.7014 26.4253 2707.69
23.5714 26.0714 2671.43
22.4 25.9556 2659.56
13.0081 23.7398 2432.52
4.77612 21.791 2232.84
17.2414 25.1724 2579.31
16.5517 25.1724 2579.31
16.6957 25.3913 2601.74
15.5844 25.2814 2590.48
16.5639 25.7269 2636.12
9.91736 24.1322 2472.73
-7.51678 19.5973 2008.05
-8.29431 19.5318 2001.34
6.50407 23.7398 2432.52
5.50607 23.6437 2422.67
9.57265 24.9573 2557.26
17.1963 27.2897 2796.26
14.2466 26.6667 2732.42
-14.9841 18.5397 1899.68
8.34783 25.3913 2601.74
7.27273 25.2814 2590.48
8.10573 25.7269 2636.12
6.26087 25.3913 2601.74
-7.11111 21.6296 2216.3
4.86957 25.3913 2601.74
-8.82353 21.4706 2200
3.47826 25.3913 2601.74
0.337553 24.6414 2524.89
-1.98347 24.1322 2472.73
-15.6701 20.0687 2056.36
1.04803 25.5022 2613.1
-14.2857 20.8571 2137.14
5.23364 27.2897 2796.26
0.714286 26.0714 2671.43
-0.707965 25.8407 2647.79
0.361991 26.4253 2707.69
7.56219 29.0547 2977.11
-0.365297 26.6667 2732.42
-1.45455 26.5455 2720
-7.45763 24.7458 2535.59
-2.90909 26.5455 2720
-9.41176 24.5378 2514.29
-9.49153 24.7458 2535.59
-5.76577 26.3063 2695.5
-4.09302 27.1628 2783.26
-41.5238 13.9048 1424.76
-41.8138 13.9379 1428.16
-37.76 15.5733 1595.73
-9.04977 26.4253 2707.69
-9.45455 26.5455 2720
-28.1081 19.7297 2021.62
-14.1991 25.2814 2590.48
-11.0092 26.789 2744.95
-11.4286 26.9124 2757.6
-18.1513 24.5378 2514.29
-13.516 26.6667 2732.42
-12.7103 27.2897 2796.26
-16.4286 26.0714 2671.43
-24.127 23.1746 2374.6
-24.9802 23.083 2365.22
-25.8268 22.9921 2355.91
-20.3509 25.614 2624.56
-21.31 25.5022 2613.1
-26.88 23.36 2393.6
-27.52 23.36 2393.6
-30.3448 22.3755 2292.72
-17.561 28.4878 2919.02
-49.1707 14.2439 1459.51
-21.6822 27.2897 2796.26
-24.2534 26.4253 2707.69
-23.7037 27.037 2770.37
-25.9459 26.3063 2695.5
-27.1429 26.0714 2671.43
-45.9475 17.0262 1744.61
-46.9914 16.7335 1714.61
-27.8899 26.789 2744.95
-27.907 27.1628 2783.26
-28.8889 27.037 2770.37
-49.2655 16.4972 1690.4
-49.8028 16.4507 1685.63
-50.5028 16.3128 1671.51
-53.057 15.1295 1550.26
-36.0515 25.0644 2568.24
-43.2117 21.3139 2183.94
-43.7956 21.3139 2183.94
-43.9852 21.5498 2208.12
-44.1791 21.791 2232.84
-42.5397 23.1746 2374.6
-37.8182 26.5455 2720
-47.3118 20.9319 2144.8
-40.354 25.8407 2647.79
-45.625 22.8125 2337.5
-46.3813 22.7237 2328.4
-56.5746 16.1326 1653.04
-42.5225 26.3063 2695.5
-45.8577 24.4351 2503.77
-58.0822 16 1639.45
-58.5792 15.9563 1634.97
-59.4652 15.615 1600
-46.4286 26.0714 2671.43
-60.4775 15.4907 1587.27
-48.1416 25.8407 2647.79
-61.4248 15.409 1578.89
-49.8246 25.614 2624.56
-49.8655 26.1883 2683.41
-51.4783 25.3913 2601.74
-63.2898 15.248 1562.4
-52.3894 25.8407 2647.79
-53.9056 25.0644 2568.24
-64.5026 15.288 1566.49
-65.0777 15.1295 1550.26
-65.5297 15.0904 1546.25
-67.6644 13.2426 1356.92
-66.2857 15.1688 1554.29
-66.77 15.0904 1546.25
-55.3234 29.0547 2977.11
-67.7863 14.8601 1522.65
-68.072 15.0129 1538.3
-61.5638 24.0329 2462.55
-61.8487 24.5378 2514.29
-69.5477 14.6734 1503.52
-64.6743 22.3755 2292.72
-64.0664 24.2324 2482.99
-70.7071 14.7475 1511.11
-65.5144 24.0329 2462.55
-71.5365 14.7103 1507.3
-67.251 23.2669 2384.06
-72.4752 14.4554 1481.19
-68.6166 23.083 2365.22
-73.2338 14.5274 1488.56
-73.7101 14.3489 1470.27
-74.1176 14.3137 1466.67
-69.6296 27.037 2770.37
-75.0476 13.9048 1424.76
-72.9927 21.3139 2183.94
-73.2308 22.4615 2301.54
-76.1259 14.1404 1448.91
-76.5385 14.0385 1438.46
-74.7325 24.0329 2462.55
-77.2816 14.1748 1452.43
-77.3407 16.1773 1657.62
-77.9328 15.0904 1546.25
-78.3158 15.3684 1574.74
-78.7532 15.1688 1554.29
-79.0805 16.7816 1719.54
-79.5908 14.9361 1530.43
-80 16.4507 1685.63
-80.4482 16.3585 1676.19
-80.806 14.7103 1507.3
-82.2749 27.6777 2836.02
-82.9493 26.9124 2757.6
-81.9802 14.4554 1481.19
-82.7119 16.4972 1690.4
-83.1549 16.4507 1685.63
-83.5955 16.4045 1680.9
-83.9024 15.8266 1621.68
-84.3243 15.7838 1617.3
-84.7439 15.7412 1612.94
-85.1613 15.6989 1608.6
-85.012 14.0723 1441.93
-85.3846 14.0385 1438.46
-85.7554 14.0048 1435.01
-86.1244 13.9713 1431.58
-86.4916 13.9379 1428.16
-86.8571 13.9048 1424.76
-87.2209 13.8717 1421.38
-88.4211 15.3684 1574.74
-94.6087 25.3913 2601.74
-89.5135 15.7838 1617.3
-96 25.3913 2601.74
-91.1304 16.9275 1734.49
-97.3913 25.3913 2601.74
-97.931 25.1724 2579.31
-98.5408 25.0644 2568.24
-99.1453 24.9573 2557.26
-99.7447 24.8511 2546.38
-100.339 24.7458 2535.59
-101.379 25.1724 2579.31
-101.974 25.0644 2568.24
-102.092 24.4351 2503.77
-95.5429 16.6857 1709.71
-103.237 24.2324 2482.99
-103.802 24.1322 2472.73
-96.7705 16.5439 1695.18
-104.918 23.9344 2452.46
-105.469 23.8367 2442.45
-106.016 23.7398 2432.52
-106.667 23.7398 2432.52
-107.206 23.6437 2422.67
-108.197 23.9344 2452.46
-99.5014 16.1773 1657.62
-108.8 23.36 2393.6
-109.919 23.7398 2432.52
-110.08 23.36 2393.6
-110.968 23.5484 2412.9
-110.745 22.902 2346.67
-101.858 15.9563 1634.97
-102.234 15.9128 1630.52
-115.254 24.7458 2535.59
-112.741 22.5483 2310.42
-103.351 15.7838 1617.3
-114.375 22.8125 2337.5
-114.198 22.2901 2283.97
-104.45 15.6568 1604.29
-115.969 22.6357 2319.38
-105.173 15.5733 1595.73
-116.09 21.9549 2249.62
-117.395 22.3755 2292.72
-106.243 15.4497 1583.07
-118.182 22.1212 2266.67
-118.642 22.0377 2258.11
-107.297 15.3281 1570.6
-118.824 21.4706 2200
-107.99 15.248 1562.4
-108.333 15.2083 1558.33
-121.041 21.71 2224.54
-121.026 21.3919 2191.94
-121.159 21.1594 2168.12
-121.588 21.083 2160.29
-122.628 21.3139 2183.94
-122.286 20.8571 2137.14
-123.478 21.1594 2168.12
-124.058 21.1594 2168.12
-124.317 21.0072 2152.52
-139.429 27.8095 2849.52
-142.266 28.7685 2947.78
-124.755 20.4196 2092.31
-125.157 20.3484 2085.02
-143.689 28.3495 2904.85
-125.952 20.2076 2070.59
-113.6 14.6 1496
-113.915 14.5636 1492.27
-127.944 20.3484 2085.02
-128.502 20.3484 2085.02
-114.851 14.4554 1481.19
-129.273 20.2076 2070.59
-129.655 20.1379 2063.45
-147.721 27.1628 2783.26
-148.148 27.037 2770.37
-116.381 14.2787 1463.08
-131.156 19.8639 2035.37
-131.525 19.7966 2028.47
-117.282 14.1748 1452.43
-132.081 19.5973 2008.05
-117.874 14.1063 1445.41
-151.031 26.1883 2683.41
-132.288 19.085 1955.56
-118.753 14.0048 1435.01
-119.043 13.9713 1431.58
-133.333 18.8997 1936.57
-119.619 13.9048 1424.76
-134.019 18.7781 1924.12
-134.359 18.7179 1917.95
-135.584 18.961 1942.86
-135.922 18.8997 1936.57
-158.914 26.4253 2707.69
-155.214 24.9573 2557.26
-121.593 13.6768 1401.41
-121.869 13.6449 1398.13
-160.356 25.9556 2659.56
-156.639 24.5378 2514.29
-138.228 18.481 1893.67
-138.734 18.481 1893.67
-123.233 13.4873 1381.99
-162.087 25.3913 2601.74
-162.424 25.2814 2590.48
-124.037 13.3945 1372.48
-124.302 13.3638 1369.34
-139.512 17.8049 1824.39
-139.818 17.7508 1818.84
-140.121 17.697 1813.33
-141.35 17.9141 1835.58
-141.277 17.7508 1818.84
-142.141 17.8593 1829.97
-141.502 17.5375 1797
-130.837 14.3842 1473.89
-142.462 17.5375 1797
-126.786 13.0357 1335.71
-126.52 12.8634 1318.06
-142.959 17.2781 1770.41
-132.165 14.2092 1455.96
-143.158 17.076 1749.71
-143.812 17.1261 1754.84
-143.907 17.0262 1744.61
-145.325 17.2781 1770.41
-145.605 17.2271 1765.19
-144.74 16.8786 1729.48
-145.014 16.83 1724.5
-191.373 28.6275 2933.33
-145.371 16.6857 1709.71
-191.845 28.3495 2904.85
-146.667 16.7816 1719.54
-170.543 22.6357 2319.38
-170.811 22.5483 2310.42
-192.762 27.8095 2849.52
-148.114 16.6857 1709.71
-147.416 16.4045 1680.9
-147.675 16.3585 1676.19
-168.116 21.1594 2168.12
-136.93 13.5814 1391.63
-190.493 26.1883 2683.41
-134.867 12.9204 1323.89
-135.099 12.8918 1320.97
-191.15 25.8407 2647.79
-185.774 24.4351 2503.77
-138.618 13.4562 1378.8
-157.812 17.7508 1818.84
-158.061 17.697 1813.33
-196.757 26.3063 2695.5
-138.607 13.1236 1344.72
-197.143 26.0714 2671.43
-192.821 24.9573 2557.26
-197.522 25.8407 2647.79
-187.742 23.5484 2412.9
-187.952 23.4538 2403.21
-188.16 23.36 2393.6
-140.177 12.9204 1323.89
-140.397 12.8918 1320.97
-188.775 23.083 2365.22
-189.407 23.083 2365.22
-189.176 22.902 2346.67
-188.108 22.5483 2310.42
-189.572 22.7237 2328.4
-199.494 24.6414 2524.89
-210.642 26.789 2744.95
-195.484 23.5484 2412.9
-219.806 28.3495 2904.85
-219.903 28.2126 2890.82
-196.016 23.2669 2384.06
-196.19 23.1746 2374.6
-225.025 28.7685 2947.78
-220.284 27.6777 2836.02
-189.412 21.4706 2200
-192.06 21.8727 2241.2
-192.239 21.791 2232.84
-192.416 21.71 2224.54
-201.6 23.36 2393.6
-201.753 23.2669 2384.06
-197.701 22.3755 2292.72
-225.66 27.5472 2822.64
-191.655 21.0072 2152.52
-205.301 23.4538 2403.21
-205.44 23.36 2393.6
-193.381 21.0072 2152.52
-193.957 21.0072 2152.52
-204.375 22.8125 2337.5
-212.78 24.2324 2482.99
-226.182 26.5455 2720
-218.712 25.0644 2568.24
-183.77 18.6581 1911.82
-236.923 28.0769 2876.92
-180 17.8049 1824.39
-177.515 17.2781 1770.41
-187.532 18.961 1942.86
-233.364 26.9124 2757.6
-197.333 20.4912 2099.65
-213.333 23.1746 2374.6
-200.571 20.8571 2137.14
-214.071 23.083 2365.22
-222.594 24.4351 2503.77
-233.543 26.1883 2683.41
-180.88 17.1261 1754.84
-219.355 23.5484 2412.9
-186.831 17.9692 1841.23
-185.06 17.5904 1802.41
-179.545 16.5909 1700
-184.762 17.381 1780.95
-218.667 22.902 2346.67
-227.386 24.2324 2482.99
-173.159 15.248 1562.4
35.016 19.1693 1911.82
16.0858 16.0858 1604.29
46.0777 21.2014 2114.49
21.7765 17.192 1714.61
67.3333 25 2493.33
8 15 1496
71.0345 25.8621 2579.31
65.9414 25.1046 2503.77
7.67677 15.1515 1511.11
65.8228 25.3165 2524.89
6.86869 15.1515 1511.11
70.1754 26.3158 2624.56
89.5522 29.8507 2977.11
61.3333 25 2493.33
71.3901 26.9058 2683.41
86.3366 29.703 2962.38
17.7778 17.5439 1749.71
43.7175 22.3048 2224.54
39.5668 21.6606 2160.29
38.1362 21.5054 2144.8
44.7148 22.8137 2275.29
39.1241 21.8978 2183.94
32.7778 20.8333 2077.78
37.5273 21.8182 2176
37.3723 21.8978 2183.94
31.8881 20.979 2092.31
31.3287 20.979 2092.31
37.3333 22.2222 2216.3
43.6078 23.5294 2346.67
37.0149 22.3881 2232.84
55.6522 26.087 2601.74
61.7352 27.3973 2732.42
54.2609 26.087 2601.74
56.5333 26.6667 2659.56
20.5263 19.7368 1968.42
24.1096 20.5479 2049.32
20.4651 19.9336 1988.04
48.547 25.641 2557.26
13.2087 18.6916 1864.17
14.4762 19.0476 1899.68
19.3289 20.1342 2008.05
44.7458 25.4237 2535.59
8.19277 18.0723 1802.41
44.9785 25.7511 2568.24
12.2293 19.1083 1905.73
12.0128 19.1693 1911.82
41.3559 25.4237 2535.59
50.6422 27.5229 2744.95
42.069 25.8621 2579.31
39.8298 25.5319 2546.38
40.1717 25.7511 2568.24
38.4681 25.5319 2546.38
39.8268 25.974 2590.48
36.6102 25.4237 2535.59
37.4249 25.7511 2568.24
36.7382 25.7511 2568.24
41.8018 27.027 2695.5
35.3648 25.7511 2568.24
34.6781 25.7511 2568.24
33.9914 25.7511 2568.24
-5 17.0455 1700
48 29.2683 2919.02
32.9004 25.974 2590.48
46.439 29.2683 2919.02
29.617 25.5319 2546.38
30.3448 25.8621 2579.31
43.4951 29.1262 2904.85
43.3171 29.2683 2919.02
30.1754 26.3158 2624.56
28.5217 26.087 2601.74
26.4378 25.7511 2568.24
25.7511 25.7511 2568.24
23.7288 25.4237 2535.59
24.3777 25.7511 2568.24
27.8571 26.7857 2671.43
-4.05063 18.9873 1893.67
27.3874 27.027 2695.5
22.069 25.8621 2579.31
8.75472 22.6415 2258.11
22.0087 26.2009 2613.1
22.6549 26.5487 2647.79
19.3103 25.8621 2579.31
17.3617 25.5319 2546.38
17.931 25.8621 2579.31
16.824 25.7511 2568.24
19.5556 26.6667 2659.56
11.9008 24.7934 2472.73
15.1724 25.8621 2579.31
-0.866426 21.6606 2160.29
2.11321 22.6415 2258.11
-8.2392 19.9336 1988.04
8.59504 24.7934 2472.73
5.12 24 2393.6
9.87234 25.5319 2546.38
-9.66443 20.1342 2008.05
5.59671 24.6914 2462.55
9.35065 25.974 2590.48
3.93443 24.5902 2452.46
7.96537 25.974 2590.48
-5.05576 22.3048 2224.54
7.33624 26.2009 2613.1
6.26087 26.087 2601.74
-6.84015 22.3048 2224.54
1.67364 25.1046 2503.77
-9.34307 21.8978 2183.94
-9.92701 21.8978 2183.94
-0.334728 25.1046 2503.77
-12.8114 21.3523 2129.54
-14.3158 21.0526 2099.65
1.04803 26.2009 2613.1
-0 26.087 2601.74
0.352423 26.4317 2636.12
9.95025 29.8507 2977.11
-0.707965 26.5487 2647.79
-0.358744 26.9058 2683.41
-4.13793 25.8621 2579.31
-1.08597 27.1493 2707.69
-1.45455 27.2727 2720
-2.18182 27.2727 2720
4.37811 29.8507 2977.11
1.95122 29.2683 2919.02
-4.36364 27.2727 2720
-4.0553 27.6498 2757.6
-5.81818 27.2727 2720
-37.1353 15.9151 1587.27
-6.94064 27.3973 2732.42
-8 27.2727 2720
-27.7333 20 1994.67
-30.0965 19.2926 1924.12
-17.561 24.3902 2432.52
-10.9091 27.2727 2720
-19.3548 24.1935 2412.9
-12.6697 27.1493 2707.69
-13.6937 27.027 2695.5
-21.992 23.9044 2384.06
-16 26.6667 2659.56
-21.8776 24.4898 2442.45
-22.7642 24.3902 2432.52
-16.7273 27.2727 2720
-17.7376 27.1493 2707.69
-24.7154 24.3902 2432.52
-27.0866 23.622 2355.91
-28.5271 23.2558 2319.38
-27.9365 23.8095 2374.6
-29.572 23.3463 2328.4
-50.6422 13.7615 1372.48
-20.6573 28.169 2809.39
-23.0137 27.3973 2732.42
-22.6977 27.907 2783.26
-24.4749 27.3973 2732.42
-22.8571 28.5714 2849.52
-46.2678 17.094 1704.84
-26.6667 27.3973 2732.42
-27.3973 27.3973 2732.42
-28.1279 27.3973 2732.42
-47.9083 17.192 1714.61
-29.3578 27.5229 2744.95
-48.9143 17.1429 1709.71
-49.8876 16.8539 1680.9
-31.7808 27.3973 2732.42
-34.185 26.4317 2636.12
-42.8986 21.7391 2168.12
-37.4684 25.3165 2524.89
-56.2679 14.3541 1431.58
-41.5748 23.622 2355.91
-44.9635 21.8978 2183.94
-37.0909 27.2727 2720
-47.3239 21.1268 2107.04
-57.9177 14.5278 1448.91
-48.4507 21.1268 2107.04
-57.261 15.5039 1546.25
-43.6975 25.2101 2514.29
-56.8937 16.3488 1630.52
-38.607 29.8507 2977.11
-45.4237 25.4237 2535.59
-58.3198 16.2602 1621.68
-47.0588 25.2101 2514.29
-47.8661 25.1046 2503.77
-59.8391 16.0858 1604.29
-60.4775 15.9151 1587.27
-50.2479 24.7934 2472.73
-61.1765 16.0428 1600
-49.8246 26.3158 2624.56
-62.2222 15.873 1583.07
-51.4783 26.087 2601.74
-63.0239 15.9151 1587.27
-53.1034 25.8621 2579.31
-50.9091 28.7081 2863.16
-54.7009 25.641 2557.26
-64.9215 15.7068 1566.49
-65.567 15.4639 1542.27
-65.7963 15.6658 1562.4
-55.7798 27.5229 2744.95
-66.7013 15.5844 1554.29
-67.2494 15.4242 1538.3
-67.6923 15.3846 1534.36
-59.0991 27.027 2695.5
-68.4536 15.4639 1542.27
-68.8083 15.544 1550.26
-69.3878 15.3061 1526.53
-69.8219 15.2672 1522.65
-70.303 15.1515 1511.11
-70.7305 15.1134 1507.3
-71.1558 15.0754 1503.52
-66.56 24 2393.6
-65.9031 26.4317 2636.12
-72.3618 15.0754 1503.52
-72.782 15.0376 1499.75
-73.2 15 1496
-69.9608 23.5294 2346.67
-74.0299 14.9254 1488.56
-70.5485 25.3165 2524.89
-74.902 14.7059 1466.67
-71.8298 25.5319 2546.38
-75.6968 14.6699 1463.08
-73.2489 25.3165 2524.89
-76.5049 14.5631 1452.43
-74.7325 24.6914 2462.55
-77.2414 14.7783 1473.89
-77.757 14.0187 1398.13
-77.832 16.2602 1621.68
-78.2609 16.3043 1626.09
-78.7234 15.9574 1591.49
-79.1688 15.5844 1554.29
-79.5455 17.0455 1700
-80 15.3061 1526.53
-80.4051 15.1899 1514.94
-81.4747 27.6498 2757.6
-81.2 15 1496
-81.768 16.5746 1653.04
-83.6697 27.5229 2744.95
-84.4037 27.5229 2744.95
-82.7654 14.8148 1477.53
-83.4783 16.3043 1626.09
-83.9024 16.2602 1621.68
-84.3243 16.2162 1617.3
-84.9025 16.7131 1666.85
-85.3333 16.6667 1662.22
-85.0485 14.5631 1452.43
-86.1878 16.5746 1653.04
-85.7971 14.4928 1445.41
-87.033 16.4835 1643.96
-87.4521 16.4384 1639.45
-87.8689 16.3934 1634.97
-87.2727 14.3541 1431.58
-88.4211 15.7895 1574.74
-87.814 13.9535 1391.63
-89.8324 16.7598 1671.51
-90.6667 17.3913 1734.49
-91.1953 17.4927 1744.61
-97.5439 26.3158 2624.56
-92.0231 17.341 1729.48
-92.3429 17.1429 1709.71
-92.7635 17.094 1704.84
-93.2951 17.192 1714.61
-93.5977 16.9972 1695.18
-94.0113 16.9492 1690.4
-94.5455 17.0455 1700
-94.9575 16.9972 1695.18
-103.448 25.8621 2579.31
-95.8192 16.9492 1690.4
-96.0446 16.7131 1666.85
-96.4444 16.6667 1662.22
-105.763 25.4237 2535.59
-97.4302 16.7598 1671.51
-106.891 25.2101 2514.29
-106.996 24.6914 2462.55
-98.615 16.6205 1657.62
-98.7978 16.3934 1634.97
-109.831 25.4237 2535.59
-110.638 25.5319 2546.38
-102.716 18.5185 1846.91
-100.659 16.4835 1643.96
-110.598 23.9044 2384.06
-101.075 16.129 1608.6
-112.258 24.1935 2412.9
-101.818 16.0428 1600
-117.143 26.7857 2671.43
-113.785 23.9044 2384.06
-102.918 15.9151 1587.27
-103.529 16.0428 1600
-103.641 15.8311 1578.89
-115.765 23.5294 2346.67
-107.619 17.8571 1780.95
-104.974 15.873 1583.07
-105.33 15.8311 1578.89
-105.684 15.7895 1574.74
-106.037 15.748 1570.6
-106.387 15.7068 1566.49
-118.352 22.4719 2241.2
-119.544 22.8137 2275.29
-107.147 15.4242 1538.3
-107.772 15.544 1550.26
-120.902 22.5564 2249.62
-120.588 22.0588 2200
-121.026 21.978 2191.94
-112.55 17.192 1714.61
-109.614 15.4242 1538.3
-122.473 21.8182 2176
-110.051 15.2284 1518.78
-123.956 21.978 2191.94
-124.38 21.8978 2183.94
-110.8 15 1496
-111.122 14.9626 1492.27
-125.632 21.6606 2160.29
-111.762 14.8883 1484.86
-112.079 14.8515 1481.19
-112.395 14.8148 1477.53
-112.709 14.7783 1473.89
-113.35 14.8883 1484.86
-127.222 20.8333 2077.78
-113.975 14.8148 1477.53
-128 20.6897 2063.45
-114.595 14.742 1470.27
-114.902 14.7059 1466.67
-115.208 14.6699 1463.08
-115.512 14.6341 1459.51
-115.47 14.4578 1441.93
-131.134 20.6186 2056.36
-131.507 20.5479 2049.32
-116.715 14.4928 1445.41
-116.659 14.3198 1428.16
-116.952 14.2857 1424.76
-132.973 20.2703 2021.62
-133.333 20.202 2014.81
-118.095 14.2857 1424.76
-118.113 14.1509 1411.32
-118.765 14.2518 1421.38
-118.685 14.0845 1404.69
-135.099 19.8675 1981.46
-119.252 14.0187 1398.13
-153.739 26.087 2601.74
-119.814 13.9535 1391.63
-136.471 19.6078 1955.56
-154.85 25.7511 2568.24
-155.214 25.641 2557.26
-121.206 13.9211 1388.4
-121.195 13.7931 1375.63
-156.287 25.3165 2524.89
-121.739 13.73 1369.34
-138.786 19.1693 1911.82
-139.108 19.1083 1905.73
-139.429 19.0476 1899.68
-122.812 13.6054 1356.92
-123.077 13.5747 1353.85
-123.341 13.544 1350.79
-159.02 24.4898 2442.45
-123.865 13.4831 1344.72
-124.424 13.544 1350.79
-141.615 18.6335 1858.39
-125.045 13.5135 1347.75
-125.303 13.4831 1344.72
-141.576 18.1818 1813.33
-130.443 14.7783 1473.89
-126.278 13.4529 1341.7
-126.325 13.363 1332.74
-144.892 18.5759 1852.63
