32.618 56.6524 2568.24
31.9313 56.6524 2568.24
31.2446 56.6524 2568.24
31.0345 56.8966 2579.31
30.3448 56.8966 2579.31
29.6552 56.8966 2579.31
28.9655 56.8966 2579.31
28.2759 56.8966 2579.31
27.5862 56.8966 2579.31
26.8966 56.8966 2579.31
26.2069 56.8966 2579.31
25.5172 56.8966 2579.31
24.8276 56.8966 2579.31
24.1379 56.8966 2579.31
23.4483 56.8966 2579.31
22.7586 56.8966 2579.31
22.5108 57.1429 2590.48
21.8182 57.1429 2590.48
21.1255 57.1429 2590.48
20.4329 57.1429 2590.48
19.7403 57.1429 2590.48
19.0476 57.1429 2590.48
18.355 57.1429 2590.48
17.6623 57.1429 2590.48
16.9697 57.1429 2590.48
16.2771 57.1429 2590.48
15.5844 57.1429 2590.48
14.8918 57.1429 2590.48
14.1991 57.1429 2590.48
13.5065 57.1429 2590.48
12.8139 57.1429 2590.48
12.1212 57.1429 2590.48
11.4286 57.1429 2590.48
10.7359 57.1429 2590.48
10.0433 57.1429 2590.48
9.35065 57.1429 2590.48
8.65801 57.1429 2590.48
7.96537 57.1429 2590.48
7.27273 57.1429 2590.48
6.58009 57.1429 2590.48
5.88745 57.1429 2590.48
5.56522 57.3913 2601.74
4.86957 57.3913 2601.74
4.17391 57.3913 2601.74
3.47826 57.3913 2601.74
2.42424 57.1429 2590.48
1.7316 57.1429 2590.48
1.3913 57.3913 2601.74
0.695652 57.3913 2601.74
-0 57.3913 2601.74
-0.695652 57.3913 2601.74
-1.3913 57.3913 2601.74
-2.08696 57.3913 2601.74
-2.78261 57.3913 2601.74
-3.47826 57.3913 2601.74
-4.17391 57.3913 2601.74
-4.86957 57.3913 2601.74
-5.56522 57.3913 2601.74
-6.26087 57.3913 2601.74
-6.95652 57.3913 2601.74
-7.33624 57.6419 2613.1
-8.03493 57.6419 2613.1
-8.73362 57.6419 2613.1
-9.43231 57.6419 2613.1
-10.131 57.6419 2613.1
-10.8297 57.6419 2613.1
-11.2281 57.8947 2624.56
-11.9298 57.8947 2624.56
-12.6316 57.8947 2624.56
-13.3333 57.8947 2624.56
-14.0351 57.8947 2624.56
-14.7368 57.8947 2624.56
-15.4386 57.8947 2624.56
-15.859 58.1498 2636.12
-16.5639 58.1498 2636.12
-17.2687 58.1498 2636.12
-17.9736 58.1498 2636.12
-18.6784 58.1498 2636.12
-19.3833 58.1498 2636.12
-20.0881 58.1498 2636.12
-39.2727 40 1813.33
-39.7576 40 1813.33
-40.2424 40 1813.33
-21.6216 59.4595 2695.5
-25.2991 56.4103 2557.26
-25.9829 56.4103 2557.26
-26.6667 56.4103 2557.26
-26.2009 57.6419 2613.1
-26.8996 57.6419 2613.1
-28.7179 56.4103 2557.26
-29.4017 56.4103 2557.26
-27.3874 59.4595 2695.5
-28.1081 59.4595 2695.5
-30.8225 57.1429 2590.48
-31.5152 57.1429 2590.48
-32.2078 57.1429 2590.48
-32.9004 57.1429 2590.48
-33.5931 57.1429 2590.48
-34.2857 57.1429 2590.48
-34.9784 57.1429 2590.48
-35.671 57.1429 2590.48
-36.3636 57.1429 2590.48
-37.0563 57.1429 2590.48
-37.7489 57.1429 2590.48
-38.4416 57.1429 2590.48
-39.1342 57.1429 2590.48
-39.8268 57.1429 2590.48
-40.5195 57.1429 2590.48
-41.2121 57.1429 2590.48
-41.9048 57.1429 2590.48
-42.5974 57.1429 2590.48
-43.29 57.1429 2590.48
-43.9827 57.1429 2590.48
-44.6753 57.1429 2590.48
-45.5172 56.8966 2579.31
-46.2069 56.8966 2579.31
-46.8966 56.8966 2579.31
-47.5862 56.8966 2579.31
-48.2759 56.8966 2579.31
-48.9655 56.8966 2579.31
-49.6552 56.8966 2579.31
-50.3448 56.8966 2579.31
-51.0345 56.8966 2579.31
-51.7241 56.8966 2579.31
-52.4138 56.8966 2579.31
-53.1034 56.8966 2579.31
-53.7931 56.8966 2579.31
-54.4828 56.8966 2579.31
-55.1724 56.8966 2579.31
-55.8621 56.8966 2579.31
-56.5517 56.8966 2579.31
-57.2414 56.8966 2579.31
-57.931 56.8966 2579.31
-58.6207 56.8966 2579.31
-59.3103 56.8966 2579.31
-60 56.8966 2579.31
-60.6897 56.8966 2579.31
-61.3793 56.8966 2579.31
-62.069 56.8966 2579.31
-62.7586 56.8966 2579.31
-63.4483 56.8966 2579.31
-64.1379 56.8966 2579.31
-64.8276 56.8966 2579.31
-65.5172 56.8966 2579.31
-66.0262 57.6419 2613.1
-66.7249 57.6419 2613.1
-67.4236 57.6419 2613.1
-68.1223 57.6419 2613.1
-68.821 57.6419 2613.1
-69.5197 57.6419 2613.1
-70.1754 57.8947 2624.56
-70.917 57.6419 2613.1
-71.7241 56.8966 2579.31
-72.4138 56.8966 2579.31
-73.1034 56.8966 2579.31
-73.7931 56.8966 2579.31
-74.4828 56.8966 2579.31
-75.1724 56.8966 2579.31
-75.8621 56.8966 2579.31
-76.5517 56.8966 2579.31
-77.2414 56.8966 2579.31
-77.931 56.8966 2579.31
-78.6207 56.8966 2579.31
-79.3103 56.8966 2579.31
-80 56.8966 2579.31
-80.6897 56.8966 2579.31
-81.3793 56.8966 2579.31
-82.069 56.8966 2579.31
-82.7586 56.8966 2579.31
-83.4483 56.8966 2579.31
-84.1379 56.8966 2579.31
-84.8276 56.8966 2579.31
-85.5172 56.8966 2579.31
-86.2069 56.8966 2579.31
-86.9264 57.1429 2590.48
-87.619 57.1429 2590.48
-88.3117 57.1429 2590.48
-89.0043 57.1429 2590.48
-89.697 57.1429 2590.48
-90.3896 57.1429 2590.48
-91.0823 57.1429 2590.48
-91.7749 57.1429 2590.48
-92.4675 57.1429 2590.48
-93.1602 57.1429 2590.48
-93.8528 57.1429 2590.48
-94.5455 57.1429 2590.48
-95.2381 57.1429 2590.48
-95.9307 57.1429 2590.48
-96.6234 57.1429 2590.48
-97.316 57.1429 2590.48
-98.0087 57.1429 2590.48
-98.7013 57.1429 2590.48
-99.3939 57.1429 2590.48
-100.087 57.1429 2590.48
-100.779 57.1429 2590.48
-101.472 57.1429 2590.48
-102.165 57.1429 2590.48
-103.26 58.1498 2636.12
-103.755 57.6419 2613.1
-104.242 57.1429 2590.48
-105.153 57.6419 2613.1
-105.852 57.6419 2613.1
-106.435 57.3913 2601.74
-107.13 57.3913 2601.74
-107.826 57.3913 2601.74
-108.522 57.3913 2601.74
-109.217 57.3913 2601.74
-109.03 55.6962 2524.89
-110.215 56.6524 2568.24
-110.38 55.6962 2524.89
-110.667 55 2493.33
-112.696 57.3913 2601.74
-113.391 57.3913 2601.74
-113.08 55.6962 2524.89
-113.898 55.9322 2535.59
-114.43 55.6962 2524.89
-114.667 55 2493.33
-115.932 55.9322 2535.59
-116.151 55.2301 2503.77
-116.975 55.4622 2514.29
-117.647 55.4622 2514.29
-118.319 55.4622 2514.29
-118.189 54.321 2462.55
-118.848 54.321 2462.55
-119.344 54.0984 2452.46
-119.675 53.6585 2432.52
-120.325 53.6585 2432.52
-119.685 51.9685 2355.91
-124.329 57.1429 2590.48
-125.022 57.1429 2590.48
-125.714 57.1429 2590.48
-126.407 57.1429 2590.48
-127.1 57.1429 2590.48
-126.582 55.6962 2524.89
-127.257 55.6962 2524.89
-127.932 55.6962 2524.89
-128.608 55.6962 2524.89
-129.492 55.9322 2535.59
-130.169 55.9322 2535.59
-130.847 55.9322 2535.59
-131.525 55.9322 2535.59
-132.203 55.9322 2535.59
-132.881 55.9322 2535.59
-133.559 55.9322 2535.59
-134.237 55.9322 2535.59
-134.915 55.9322 2535.59
-135.83 56.1702 2546.38
-136.511 56.1702 2546.38
-137.191 56.1702 2546.38
-137.872 56.1702 2546.38
-138.553 56.1702 2546.38
-139.234 56.1702 2546.38
-139.915 56.1702 2546.38
-140.596 56.1702 2546.38
-141.017 55.9322 2535.59
-141.957 56.1702 2546.38
-142.638 56.1702 2546.38
-143.051 55.9322 2535.59
-143.729 55.9322 2535.59
-144.681 56.1702 2546.38
-145.362 56.1702 2546.38
-146.043 56.1702 2546.38
-146.723 56.1702 2546.38
-147.404 56.1702 2546.38
-148.085 56.1702 2546.38
-148.766 56.1702 2546.38
-145.02 52.5896 2384.06
-145.397 52.381 2374.6
-153.956 58.6667 2659.56
-150.886 55.6962 2524.89
-151.561 55.6962 2524.89
-152.236 55.6962 2524.89
-152.911 55.6962 2524.89
-153.586 55.6962 2524.89
-154.262 55.6962 2524.89
-154.937 55.6962 2524.89
-155.612 55.6962 2524.89
-156.287 55.6962 2524.89
-156.962 55.6962 2524.89
-157.637 55.6962 2524.89
-158.312 55.6962 2524.89
-158.987 55.6962 2524.89
-153.463 51.3619 2328.4
-159.004 54.7718 2482.99
-159.668 54.7718 2482.99
-160.332 54.7718 2482.99
-160.996 54.7718 2482.99
-126.415 31.1321 1411.32
-160.98 53.8776 2442.45
-157.519 51.1628 2319.38
-158.14 51.1628 2319.38
-158.76 51.1628 2319.38
-164.979 54.7718 2482.99
-165.289 54.5455 2472.73
-165.95 54.5455 2472.73
-166.612 54.5455 2472.73
-166.914 54.321 2462.55
-167.572 54.321 2462.55
-168.23 54.321 2462.55
-168.889 54.321 2462.55
-176.711 58.6667 2659.56
-162.406 49.6241 2249.62
-163.008 49.6241 2249.62
-163.296 49.4382 2241.2
-163.582 49.2537 2232.84
-163.866 49.0706 2224.54
-166.061 50 2266.67
-175.732 55.2301 2503.77
-176 55 2493.33
-176.667 55 2493.33
-176.929 54.7718 2482.99
-177.19 54.5455 2472.73
-177.851 54.5455 2472.73
-178.107 54.321 2462.55
-178.765 54.321 2462.55
-179.424 54.321 2462.55
-180.082 54.321 2462.55
-180.741 54.321 2462.55
-181.818 54.5455 2472.73
-182.479 54.5455 2472.73
-183.14 54.5455 2472.73
-183.802 54.5455 2472.73
-168.392 46.1538 2092.31
-168.641 45.993 2085.02
-185.35 54.321 2462.55
-186.008 54.321 2462.55
-141.862 31.5036 1428.16
-142.243 31.5036 1428.16
-187.984 54.321 2462.55
-143.007 31.5036 1428.16
-189.3 54.321 2462.55
-189.959 54.321 2462.55
-190.617 54.321 2462.55
-190.82 54.0984 2452.46
-191.475 54.0984 2452.46
-192.131 54.0984 2452.46
-192.327 53.8776 2442.45
-193.443 54.0984 2452.46
-194.568 54.321 2462.55
-195.226 54.321 2462.55
-195.885 54.321 2462.55
-196.543 54.321 2462.55
-197.202 54.321 2462.55
-197.86 54.321 2462.55
-198.519 54.321 2462.55
-199.177 54.321 2462.55
-199.835 54.321 2462.55
-200.992 54.5455 2472.73
-201.152 54.321 2462.55
-201.811 54.321 2462.55
-202.469 54.321 2462.55
-203.128 54.321 2462.55
-203.786 54.321 2462.55
-204.444 54.321 2462.55
-205.103 54.321 2462.55
-205.761 54.321 2462.55
-208 55 2493.33
-208.667 55 2493.33
-212.085 56.1702 2546.38
-212.766 56.1702 2546.38
-210.124 54.7718 2482.99
-210.788 54.7718 2482.99
-211.452 54.7718 2482.99
-212.116 54.7718 2482.99
-212.78 54.7718 2482.99
-213.444 54.7718 2482.99
-214.108 54.7718 2482.99
-214.772 54.7718 2482.99
-215.436 54.7718 2482.99
-216.667 55 2493.33
-217.333 55 2493.33
-218 55 2493.33
-218.667 55 2493.33
-219.333 55 2493.33
-220.586 55.2301 2503.77
-221.255 55.2301 2503.77
-221.925 55.2301 2503.77
-222.594 55.2301 2503.77
-223.264 55.2301 2503.77
-223.933 55.2301 2503.77
-224.603 55.2301 2503.77
-225.272 55.2301 2503.77
91.5942 64.5411 2890.82
90.8213 64.5411 2890.82
90.0483 64.5411 2890.82
32.6688 42.9582 1924.12
27.6543 41.2346 1846.91
12.0955 35.4377 1587.27
12.16 35.6267 1595.73
11.7333 35.6267 1595.73
11.7962 35.8177 1604.29
11.6129 35.914 1608.6
13.9612 37.0083 1657.62
13.7778 37.1111 1662.22
11.0569 36.206 1621.68
13.1476 37.2145 1666.85
14.2776 37.847 1695.18
14.0909 37.9545 1700
13.6364 37.9545 1700
14.5245 38.5014 1724.5
14.3353 38.6127 1729.48
14.4186 38.8372 1739.53
14.2274 38.9504 1744.61
14.3109 39.1789 1754.84
14.1176 39.2941 1760
13.9233 39.41 1765.19
13.1765 39.2941 1760
12.434 39.1789 1754.84
11.9648 39.1789 1754.84
11.7647 39.2941 1760
7.43662 37.6338 1685.63
6.98592 37.6338 1685.63
6.53521 37.6338 1685.63
67.6329 64.5411 2890.82
66.8599 64.5411 2890.82
49.7854 57.3391 2568.24
48.547 57.094 2557.26
47.8632 57.094 2557.26
47.1795 57.094 2557.26
46.4957 57.094 2557.26
45.812 57.094 2557.26
45.1282 57.094 2557.26
44.4444 57.094 2557.26
43.7607 57.094 2557.26
43.0769 57.094 2557.26
42.3932 57.094 2557.26
41.7094 57.094 2557.26
41.0256 57.094 2557.26
40.3419 57.094 2557.26
39.6581 57.094 2557.26
38.9744 57.094 2557.26
38.2906 57.094 2557.26
38.1116 57.3391 2568.24
37.4249 57.3391 2568.24
36.7382 57.3391 2568.24
36.0515 57.3391 2568.24
35.3648 57.3391 2568.24
34.6781 57.3391 2568.24
33.9914 57.3391 2568.24
33.3047 57.3391 2568.24
32.618 57.3391 2568.24
31.9313 57.3391 2568.24
31.2446 57.3391 2568.24
31.0345 57.5862 2579.31
30.3448 57.5862 2579.31
29.6552 57.5862 2579.31
28.9655 57.5862 2579.31
28.2759 57.5862 2579.31
27.5862 57.5862 2579.31
26.8966 57.5862 2579.31
26.2069 57.5862 2579.31
25.5172 57.5862 2579.31
24.8276 57.5862 2579.31
24.1379 57.5862 2579.31
23.4483 57.5862 2579.31
22.7586 57.5862 2579.31
22.5108 57.8355 2590.48
21.8182 57.8355 2590.48
21.1255 57.8355 2590.48
20.4329 57.8355 2590.48
19.7403 57.8355 2590.48
19.0476 57.8355 2590.48
18.355 57.8355 2590.48
17.6623 57.8355 2590.48
16.9697 57.8355 2590.48
16.2771 57.8355 2590.48
15.5844 57.8355 2590.48
14.8918 57.8355 2590.48
14.1991 57.8355 2590.48
13.5065 57.8355 2590.48
12.8139 57.8355 2590.48
12.1212 57.8355 2590.48
11.4286 57.8355 2590.48
10.7359 57.8355 2590.48
10.0433 57.8355 2590.48
9.35065 57.8355 2590.48
8.65801 57.8355 2590.48
7.96537 57.8355 2590.48
7.27273 57.8355 2590.48
6.58009 57.8355 2590.48
5.88745 57.8355 2590.48
5.56522 58.087 2601.74
4.86957 58.087 2601.74
4.17391 58.087 2601.74
3.47826 58.087 2601.74
2.42424 57.8355 2590.48
2.08696 58.087 2601.74
1.3913 58.087 2601.74
0.695652 58.087 2601.74
-0 58.087 2601.74
-0.695652 58.087 2601.74
-1.7316 57.8355 2590.48
-2.08696 58.087 2601.74
-2.78261 58.087 2601.74
-3.47826 58.087 2601.74
-4.17391 58.087 2601.74
-4.86957 58.087 2601.74
-5.56522 58.087 2601.74
-6.26087 58.087 2601.74
-6.95652 58.087 2601.74
-7.65217 58.087 2601.74
-8.03493 58.3406 2613.1
-8.73362 58.3406 2613.1
-9.43231 58.3406 2613.1
-10.131 58.3406 2613.1
-10.8297 58.3406 2613.1
-11.2281 58.5965 2624.56
-11.9298 58.5965 2624.56
-12.6316 58.5965 2624.56
-13.3333 58.5965 2624.56
-14.0351 58.5965 2624.56
-14.7368 58.5965 2624.56
-15.4386 58.5965 2624.56
-15.859 58.8546 2636.12
-16.5639 58.8546 2636.12
-17.2687 58.8546 2636.12
-17.9736 58.8546 2636.12
-18.6784 58.8546 2636.12
-19.3833 58.8546 2636.12
-20.0881 58.8546 2636.12
-20.793 58.8546 2636.12
-21.4978 58.8546 2636.12
-22.2026 58.8546 2636.12
-22.9075 58.8546 2636.12
-51.1061 30.158 1350.79
-51.4673 30.158 1350.79
-51.7647 30.2262 1353.85
-26.2009 58.3406 2613.1
-26.6667 58.5965 2624.56
-27.3684 58.5965 2624.56
-26.6667 60.1802 2695.5
-27.1493 60.4525 2707.69
-26.4186 62.1395 2783.26
-30.8225 57.8355 2590.48
-31.5152 57.8355 2590.48
-32.2078 57.8355 2590.48
-32.9004 57.8355 2590.48
-33.5931 57.8355 2590.48
-34.2857 57.8355 2590.48
-34.9784 57.8355 2590.48
-35.671 57.8355 2590.48
-36.3636 57.8355 2590.48
-37.0563 57.8355 2590.48
-37.7489 57.8355 2590.48
-38.0786 58.3406 2613.1
-38.7773 58.3406 2613.1
-39.8268 57.8355 2590.48
-40.5195 57.8355 2590.48
-41.2121 57.8355 2590.48
-41.9048 57.8355 2590.48
-42.5974 57.8355 2590.48
-43.29 57.8355 2590.48
-43.9827 57.8355 2590.48
-44.6753 57.8355 2590.48
-45.5172 57.5862 2579.31
-46.2069 57.5862 2579.31
-46.8966 57.5862 2579.31
-47.5862 57.5862 2579.31
-48.2759 57.5862 2579.31
-48.9655 57.5862 2579.31
-49.6552 57.5862 2579.31
-50.3448 57.5862 2579.31
-51.0345 57.5862 2579.31
-51.7241 57.5862 2579.31
-52.4138 57.5862 2579.31
-53.1034 57.5862 2579.31
-53.7931 57.5862 2579.31
-54.4828 57.5862 2579.31
-55.1724 57.5862 2579.31
-55.8621 57.5862 2579.31
-56.5517 57.5862 2579.31
-57.2414 57.5862 2579.31
-57.931 57.5862 2579.31
-58.6207 57.5862 2579.31
-59.3103 57.5862 2579.31
-60 57.5862 2579.31
-60.6897 57.5862 2579.31
-61.3793 57.5862 2579.31
-62.069 57.5862 2579.31
-62.7586 57.5862 2579.31
-63.4483 57.5862 2579.31
-64.1379 57.5862 2579.31
-64.8276 57.5862 2579.31
-65.5172 57.5862 2579.31
-66.0262 58.3406 2613.1
-66.7249 58.3406 2613.1
-67.4236 58.3406 2613.1
-68.1223 58.3406 2613.1
-68.821 58.3406 2613.1
-69.6552 57.5862 2579.31
-70.1754 58.5965 2624.56
-70.917 58.3406 2613.1
-71.7241 57.5862 2579.31
-72.4138 57.5862 2579.31
-73.1034 57.5862 2579.31
-73.7931 57.5862 2579.31
-74.4828 57.5862 2579.31
-75.1724 57.5862 2579.31
-75.8621 57.5862 2579.31
-76.5517 57.5862 2579.31
-77.2414 57.5862 2579.31
-77.931 57.5862 2579.31
-78.6207 57.5862 2579.31
-79.3103 57.5862 2579.31
-80 57.5862 2579.31
-80.6897 57.5862 2579.31
-81.3793 57.5862 2579.31
-82.069 57.5862 2579.31
-82.7586 57.5862 2579.31
-83.4483 57.5862 2579.31
-84.1379 57.5862 2579.31
-84.8276 57.5862 2579.31
-85.5172 57.5862 2579.31
-86.2069 57.5862 2579.31
-86.8966 57.5862 2579.31
-87.5862 57.5862 2579.31
-88.2759 57.5862 2579.31
-88.9655 57.5862 2579.31
-89.697 57.8355 2590.48
-90.3896 57.8355 2590.48
-91.0823 57.8355 2590.48
-91.7749 57.8355 2590.48
-92.4675 57.8355 2590.48
-93.1602 57.8355 2590.48
-93.8528 57.8355 2590.48
-94.5455 57.8355 2590.48
-95.2381 57.8355 2590.48
-95.9307 57.8355 2590.48
-96.6234 57.8355 2590.48
-97.316 57.8355 2590.48
-98.0087 57.8355 2590.48
-98.7013 57.8355 2590.48
-99.3939 57.8355 2590.48
-100.087 57.8355 2590.48
-100.779 57.8355 2590.48
-101.472 57.8355 2590.48
-102.165 57.8355 2590.48
-102.857 57.8355 2590.48
-103.55 57.8355 2590.48
-104.242 57.8355 2590.48
-104.935 57.8355 2590.48
-105.628 57.8355 2590.48
-106.435 58.087 2601.74
-107.13 58.087 2601.74
-107.826 58.087 2601.74
-108.522 58.087 2601.74
-109.217 58.087 2601.74
-109.913 58.087 2601.74
-110.609 58.087 2601.74
-111.304 58.087 2601.74
-112 58.087 2601.74
-112.696 58.087 2601.74
-113.247 57.8355 2590.48
-112.667 55.6667 2493.33
-113.195 55.4357 2482.99
-114.872 57.094 2557.26
-115.556 57.094 2557.26
-114.332 54.0891 2422.67
-114.839 53.871 2412.9
-115.484 53.871 2412.9
-117.966 56.6102 2535.59
-118.481 56.3713 2524.89
-119.156 56.3713 2524.89
-119.831 56.3713 2524.89
-117.795 52.5984 2355.91
-121.008 56.1345 2514.29
-121.681 56.1345 2514.29
-122.353 56.1345 2514.29
-123.025 56.1345 2514.29
-123.697 56.1345 2514.29
-124.37 56.1345 2514.29
-125.042 56.1345 2514.29
-125.714 56.1345 2514.29
-126.582 56.3713 2524.89
-127.257 56.3713 2524.89
-127.932 56.3713 2524.89
-128.608 56.3713 2524.89
-129.283 56.3713 2524.89
-130.169 56.6102 2535.59
-130.847 56.6102 2535.59
-131.525 56.6102 2535.59
-132.203 56.6102 2535.59
-132.881 56.6102 2535.59
-133.559 56.6102 2535.59
-134.237 56.6102 2535.59
-134.915 56.6102 2535.59
-135.83 56.8511 2546.38
-136.511 56.8511 2546.38
-137.191 56.8511 2546.38
-137.872 56.8511 2546.38
-138.305 56.6102 2535.59
-138.983 56.6102 2535.59
-139.661 56.6102 2535.59
-140.339 56.6102 2535.59
-141.017 56.6102 2535.59
-141.695 56.6102 2535.59
-142.373 56.6102 2535.59
-143.051 56.6102 2535.59
-143.729 56.6102 2535.59
-144.407 56.6102 2535.59
-145.362 56.8511 2546.38
-146.043 56.8511 2546.38
-146.723 56.8511 2546.38
-147.404 56.8511 2546.38
-147.797 56.6102 2535.59
-149.356 57.3391 2568.24
-150.043 57.3391 2568.24
-145.397 53.0159 2374.6
-154.619 59.9103 2683.41
-150.886 56.3713 2524.89
-151.561 56.3713 2524.89
-152.236 56.3713 2524.89
-152.911 56.3713 2524.89
-153.586 56.3713 2524.89
-154.262 56.3713 2524.89
-154.937 56.3713 2524.89
-155.612 56.3713 2524.89
-156.287 56.3713 2524.89
-156.962 56.3713 2524.89
-157.637 56.3713 2524.89
-158.312 56.3713 2524.89
-158.987 56.3713 2524.89
-149.926 49.4815 2216.3
-158.678 55.2066 2472.73
-154.708 51.9844 2328.4
-155.331 51.9844 2328.4
-126.038 31.5094 1411.32
-126.415 31.5094 1411.32
-161.646 54.9794 2462.55
-157.821 51.9844 2328.4
-158.14 51.7829 2319.38
-158.76 51.7829 2319.38
-164.979 55.4357 2482.99
-165.643 55.4357 2482.99
-165.95 55.2066 2472.73
-166.612 55.2066 2472.73
-166.914 54.9794 2462.55
-167.572 54.9794 2462.55
-168.23 54.9794 2462.55
-168.889 54.9794 2462.55
-162.113 50.4151 2258.11
-162.406 50.2256 2249.62
-163.008 50.2256 2249.62
-163.296 50.0375 2241.2
-163.582 49.8507 2232.84
-164.179 49.8507 2232.84
-174.667 55.6667 2493.33
-175.333 55.6667 2493.33
-175.602 55.4357 2482.99
-175.868 55.2066 2472.73
-176.529 55.2066 2472.73
-176.79 54.9794 2462.55
-177.449 54.9794 2462.55
-178.107 54.9794 2462.55
-178.765 54.9794 2462.55
-179.424 54.9794 2462.55
-180.082 54.9794 2462.55
-180.741 54.9794 2462.55
-181.399 54.9794 2462.55
-183.333 55.6667 2493.33
-183.568 55.4357 2482.99
-183.802 55.2066 2472.73
-168.392 46.7133 2092.31
-168.641 46.5505 2085.02
-185.35 54.9794 2462.55
-186.008 54.9794 2462.55
-186.667 54.9794 2462.55
-187.325 54.9794 2462.55
-187.984 54.9794 2462.55
-188.642 54.9794 2462.55
-189.3 54.9794 2462.55
-189.959 54.9794 2462.55
-144.153 31.8854 1428.16
-144.535 31.8854 1428.16
-191.475 54.7541 2452.46
-192.131 54.7541 2452.46
-192.787 54.7541 2452.46
-192.52 54.3089 2432.52
-194.568 54.9794 2462.55
-195.226 54.9794 2462.55
-195.41 54.7541 2452.46
-196.066 54.7541 2452.46
-196.721 54.7541 2452.46
-197.377 54.7541 2452.46
-198.033 54.7541 2452.46
-198.689 54.7541 2452.46
-199.344 54.7541 2452.46
-200 54.7541 2452.46
-201.653 55.2066 2472.73
-202.314 55.2066 2472.73
-202.469 54.9794 2462.55
-203.128 54.9794 2462.55
-203.786 54.9794 2462.55
-204.444 54.9794 2462.55
-205.103 54.9794 2462.55
-206.281 55.2066 2472.73
-208 55.6667 2493.33
-208.667 55.6667 2493.33
-212.085 56.8511 2546.38
-212.766 56.8511 2546.38
-210.124 55.4357 2482.99
-210.788 55.4357 2482.99
-211.452 55.4357 2482.99
-212.116 55.4357 2482.99
-212.78 55.4357 2482.99
-213.444 55.4357 2482.99
-214.108 55.4357 2482.99
-214.772 55.4357 2482.99
-215.436 55.4357 2482.99
-216.667 55.6667 2493.33
-217.908 55.8996 2503.77
-218.577 55.8996 2503.77
-218.667 55.6667 2493.33
-219.916 55.8996 2503.77
-220.586 55.8996 2503.77
-221.255 55.8996 2503.77
-221.925 55.8996 2503.77
-222.594 55.8996 2503.77
-223.264 55.8996 2503.77
-223.933 55.8996 2503.77
-224.603 55.8996 2503.77
-225.272 55.8996 2503.77
91.5942 65.314 2890.82
90.8213 65.314 2890.82
90.0483 65.314 2890.82
89.2754 65.314 2890.82
32.1543 43.4727 1924.12
12.3404 35.9574 1591.49
12.16 36.0533 1595.73
11.7333 36.0533 1595.73
11.7962 36.2466 1604.29
11.6129 36.3441 1608.6
13.9612 37.4515 1657.62
13.7778 37.5556 1662.22
13.5933 37.6602 1666.85
13.1476 37.6602 1666.85
14.5455 38.4091 1700
14.0909 38.4091 1700
14.4413 38.7393 1714.61
14.7977 39.0751 1729.48
14.8837 39.3023 1739.53
14.6939 39.4169 1744.61
14.2274 39.4169 1744.61
14.3109 39.6481 1754.84
14.1176 39.7647 1760
13.3724 39.6481 1754.84
12.9032 39.6481 1754.84
12.434 39.6481 1754.84
11.9648 39.6481 1754.84
11.4956 39.6481 1754.84
7.43662 38.0845 1685.63
7.23164 38.1921 1690.4
67.6923 65 2876.92
66.9231 65 2876.92
66.1538 65 2876.92
49.7854 58.0258 2568.24
48.547 57.7778 2557.26
47.8632 57.7778 2557.26
47.1795 57.7778 2557.26
46.4957 57.7778 2557.26
45.812 57.7778 2557.26
45.1282 57.7778 2557.26
44.4444 57.7778 2557.26
43.7607 57.7778 2557.26
43.0769 57.7778 2557.26
42.3932 57.7778 2557.26
41.7094 57.7778 2557.26
41.0256 57.7778 2557.26
40.3419 57.7778 2557.26
40.1717 58.0258 2568.24
39.485 58.0258 2568.24
38.2906 57.7778 2557.26
38.1116 58.0258 2568.24
37.4249 58.0258 2568.24
36.7382 58.0258 2568.24
36.0515 58.0258 2568.24
35.3648 58.0258 2568.24
34.6781 58.0258 2568.24
33.9914 58.0258 2568.24
33.3047 58.0258 2568.24
32.618 58.0258 2568.24
31.9313 58.0258 2568.24
31.2446 58.0258 2568.24
31.0345 58.2759 2579.31
30.3448 58.2759 2579.31
29.6552 58.2759 2579.31
28.9655 58.2759 2579.31
28.2759 58.2759 2579.31
27.5862 58.2759 2579.31
26.8966 58.2759 2579.31
26.2069 58.2759 2579.31
25.5172 58.2759 2579.31
24.8276 58.2759 2579.31
24.1379 58.2759 2579.31
23.4483 58.2759 2579.31
22.7586 58.2759 2579.31
22.5108 58.5281 2590.48
21.8182 58.5281 2590.48
21.1255 58.5281 2590.48
20.4329 58.5281 2590.48
19.7403 58.5281 2590.48
19.0476 58.5281 2590.48
18.355 58.5281 2590.48
17.6623 58.5281 2590.48
16.9697 58.5281 2590.48
16.2771 58.5281 2590.48
15.5844 58.5281 2590.48
14.8918 58.5281 2590.48
14.1991 58.5281 2590.48
13.5065 58.5281 2590.48
12.8139 58.5281 2590.48
12.1212 58.5281 2590.48
11.4286 58.5281 2590.48
10.7359 58.5281 2590.48
10.0433 58.5281 2590.48
9.35065 58.5281 2590.48
9.04348 58.7826 2601.74
7.96537 58.5281 2590.48
7.65217 58.7826 2601.74
6.95652 58.7826 2601.74
6.26087 58.7826 2601.74
5.56522 58.7826 2601.74
4.50216 58.5281 2590.48
3.80952 58.5281 2590.48
3.11688 58.5281 2590.48
2.42424 58.5281 2590.48
1.7316 58.5281 2590.48
1.03896 58.5281 2590.48
0.695652 58.7826 2601.74
-0 58.7826 2601.74
-0.695652 58.7826 2601.74
-1.7316 58.5281 2590.48
-2.42424 58.5281 2590.48
-3.11688 58.5281 2590.48
-3.47826 58.7826 2601.74
-4.17391 58.7826 2601.74
-4.86957 58.7826 2601.74
-5.56522 58.7826 2601.74
-6.26087 58.7826 2601.74
-6.95652 58.7826 2601.74
-7.65217 58.7826 2601.74
-8.34783 58.7826 2601.74
-8.73362 59.0393 2613.1
-9.43231 59.0393 2613.1
-10.131 59.0393 2613.1
-10.8297 59.0393 2613.1
-11.2281 59.2982 2624.56
-11.9298 59.2982 2624.56
-12.6316 59.2982 2624.56
-13.3333 59.2982 2624.56
-14.0351 59.2982 2624.56
-14.7368 59.2982 2624.56
-15.4386 59.2982 2624.56
-16.1404 59.2982 2624.56
-16.5639 59.5595 2636.12
-17.2687 59.5595 2636.12
-17.9736 59.5595 2636.12
-18.6784 59.5595 2636.12
-19.3833 59.5595 2636.12
-20.0881 59.5595 2636.12
-20.793 59.5595 2636.12
-21.4978 59.5595 2636.12
-22.2026 59.5595 2636.12
-49.0692 32.2673 1428.16
-49.4511 32.2673 1428.16
-51.4027 30.5882 1353.85
-51.7647 30.5882 1353.85
-52.0635 30.6576 1356.92
-52.3636 30.7273 1360
-52.6651 30.7973 1363.1
-52.968 30.8676 1366.21
-54.0444 30.0444 1329.78
-30.1299 58.5281 2590.48
-30.8225 58.5281 2590.48
-31.5152 58.5281 2590.48
-32.2078 58.5281 2590.48
-32.9004 58.5281 2590.48
-33.5931 58.5281 2590.48
-34.2857 58.5281 2590.48
-34.9784 58.5281 2590.48
-35.671 58.5281 2590.48
-36.3636 58.5281 2590.48
-37.0563 58.5281 2590.48
-37.7489 58.5281 2590.48
-38.4416 58.5281 2590.48
-38.7773 59.0393 2613.1
-39.8268 58.5281 2590.48
-40.5195 58.5281 2590.48
-40.8734 59.0393 2613.1
-41.7391 58.7826 2601.74
-42.5974 58.5281 2590.48
-43.29 58.5281 2590.48
-43.9827 58.5281 2590.48
-44.6753 58.5281 2590.48
-45.5172 58.2759 2579.31
-46.2069 58.2759 2579.31
-46.8966 58.2759 2579.31
-47.5862 58.2759 2579.31
-48.2759 58.2759 2579.31
-48.9655 58.2759 2579.31
-49.6552 58.2759 2579.31
-50.3448 58.2759 2579.31
-51.0345 58.2759 2579.31
-51.7241 58.2759 2579.31
-52.4138 58.2759 2579.31
-53.1034 58.2759 2579.31
-53.7931 58.2759 2579.31
-54.4828 58.2759 2579.31
-55.1724 58.2759 2579.31
-55.8621 58.2759 2579.31
-56.5517 58.2759 2579.31
-57.2414 58.2759 2579.31
-57.931 58.2759 2579.31
-58.6207 58.2759 2579.31
-59.3103 58.2759 2579.31
-60 58.2759 2579.31
-60.6897 58.2759 2579.31
-61.3793 58.2759 2579.31
-62.069 58.2759 2579.31
-62.7586 58.2759 2579.31
-63.4483 58.2759 2579.31
-64.206 58.0258 2568.24
-64.8276 58.2759 2579.31
-65.5172 58.2759 2579.31
-66.0262 59.0393 2613.1
-66.8966 58.2759 2579.31
-67.5862 58.2759 2579.31
-68.2759 58.2759 2579.31
-68.9655 58.2759 2579.31
-69.6552 58.2759 2579.31
-70.3448 58.2759 2579.31
-71.0345 58.2759 2579.31
-71.7241 58.2759 2579.31
-72.4138 58.2759 2579.31
-73.1034 58.2759 2579.31
-73.7931 58.2759 2579.31
-74.4828 58.2759 2579.31
-75.1724 58.2759 2579.31
-75.8621 58.2759 2579.31
-76.5517 58.2759 2579.31
-77.2414 58.2759 2579.31
-77.931 58.2759 2579.31
-78.6207 58.2759 2579.31
-79.3103 58.2759 2579.31
-80 58.2759 2579.31
-80.6897 58.2759 2579.31
-81.3793 58.2759 2579.31
-82.069 58.2759 2579.31
-82.7586 58.2759 2579.31
-83.4483 58.2759 2579.31
-84.1379 58.2759 2579.31
-84.8276 58.2759 2579.31
-85.5172 58.2759 2579.31
-86.2069 58.2759 2579.31
-86.8966 58.2759 2579.31
-87.5862 58.2759 2579.31
-88.2759 58.2759 2579.31
-88.9655 58.2759 2579.31
-89.6552 58.2759 2579.31
-90.3448 58.2759 2579.31
-91.0823 58.5281 2590.48
-91.7749 58.5281 2590.48
-92.4675 58.5281 2590.48
-93.1602 58.5281 2590.48
-93.8528 58.5281 2590.48
-94.5455 58.5281 2590.48
-95.2381 58.5281 2590.48
-95.9307 58.5281 2590.48
-96.6234 58.5281 2590.48
-97.316 58.5281 2590.48
-98.0087 58.5281 2590.48
-98.7013 58.5281 2590.48
-99.3939 58.5281 2590.48
-100.087 58.5281 2590.48
-100.779 58.5281 2590.48
-101.472 58.5281 2590.48
-102.165 58.5281 2590.48
-102.857 58.5281 2590.48
-103.55 58.5281 2590.48
-104.242 58.5281 2590.48
-104.935 58.5281 2590.48
-106.429 60.3571 2671.43
-107.143 60.3571 2671.43
-107.733 60.0889 2659.56
-107.826 58.7826 2601.74
-108.646 59.0393 2613.1
-109.217 58.7826 2601.74
-109.913 58.7826 2601.74
-110.742 59.0393 2613.1
-111.304 58.7826 2601.74
-112 58.7826 2601.74
-112.696 58.7826 2601.74
-113.391 58.7826 2601.74
-114.087 58.7826 2601.74
-114.632 58.5281 2590.48
-115.325 58.5281 2590.48
-115.862 58.2759 2579.31
-116.395 58.0258 2568.24
-116.923 57.7778 2557.26
-117.447 57.5319 2546.38
-117.966 57.2881 2535.59
-118.481 57.0464 2524.89
-119.156 57.0464 2524.89
-119.664 56.8067 2514.29
-120.336 56.8067 2514.29
-121.008 56.8067 2514.29
-121.681 56.8067 2514.29
-122.353 56.8067 2514.29
-123.025 56.8067 2514.29
-123.697 56.8067 2514.29
-124.37 56.8067 2514.29
-125.042 56.8067 2514.29
-125.714 56.8067 2514.29
-126.582 57.0464 2524.89
-127.257 57.0464 2524.89
-127.932 57.0464 2524.89
-128.403 56.8067 2514.29
-129.283 57.0464 2524.89
-130.169 57.2881 2535.59
-130.847 57.2881 2535.59
-129.032 54.5161 2412.9
-132.426 57.5319 2546.38
-132.881 57.2881 2535.59
-133.559 57.2881 2535.59
-134.237 57.2881 2535.59
-134.915 57.2881 2535.59
-135.83 57.5319 2546.38
-136.511 57.5319 2546.38
-137.191 57.5319 2546.38
-137.872 57.5319 2546.38
-138.305 57.2881 2535.59
-138.983 57.2881 2535.59
-139.661 57.2881 2535.59
-140.339 57.2881 2535.59
-141.017 57.2881 2535.59
-141.695 57.2881 2535.59
-142.373 57.2881 2535.59
-143.051 57.2881 2535.59
-143.729 57.2881 2535.59
-144.407 57.2881 2535.59
-145.362 57.5319 2546.38
-146.043 57.5319 2546.38
-146.723 57.5319 2546.38
-147.404 57.5319 2546.38
-147.797 57.2881 2535.59
-143.125 52.8125 2337.5
-130.215 41.6 1841.23
-145.138 53.4387 2365.22
-154.955 60.9009 2695.5
-150.886 57.0464 2524.89
-151.561 57.0464 2524.89
-152.236 57.0464 2524.89
-152.911 57.0464 2524.89
-153.586 57.0464 2524.89
-154.262 57.0464 2524.89
-154.937 57.0464 2524.89
-155.612 57.0464 2524.89
-156.287 57.0464 2524.89
-156.962 57.0464 2524.89
-157.637 57.0464 2524.89
-158.312 57.0464 2524.89
-158.987 57.0464 2524.89
-124.634 31.9622 1414.66
-154.086 52.607 2328.4
-154.708 52.607 2328.4
-155.331 52.607 2328.4
-126.038 31.8868 1411.32
-126.415 31.8868 1411.32
-161.983 55.8678 2472.73
-162.988 56.0996 2482.99
-163.651 56.0996 2482.99
-158.76 52.4031 2319.38
-164.628 55.8678 2472.73
-165.643 56.0996 2482.99
-165.95 55.8678 2472.73
-166.255 55.6379 2462.55
-166.914 55.6379 2462.55
-167.572 55.6379 2462.55
-168.23 55.6379 2462.55
-161.818 51.2121 2266.67
-162.113 51.0189 2258.11
-162.717 51.0189 2258.11
-163.636 51.2121 2266.67
-164.242 51.2121 2266.67
-173.724 56.569 2503.77
-174 56.3333 2493.33
-174.667 56.3333 2493.33
-174.938 56.0996 2482.99
-175.207 55.8678 2472.73
-175.868 55.8678 2472.73
-176.132 55.6379 2462.55
-176.79 55.6379 2462.55
-177.449 55.6379 2462.55
-178.107 55.6379 2462.55
-178.765 55.6379 2462.55
-179.424 55.6379 2462.55
-180.082 55.6379 2462.55
-180.741 55.6379 2462.55
-182.667 56.3333 2493.33
-183.333 56.3333 2493.33
-183.568 56.0996 2482.99
-183.802 55.8678 2472.73
-168.392 47.2727 2092.31
-168.333 46.9444 2077.78
-185.35 55.6379 2462.55
-186.008 55.6379 2462.55
-186.667 55.6379 2462.55
-187.325 55.6379 2462.55
-187.984 55.6379 2462.55
-188.642 55.6379 2462.55
-189.3 55.6379 2462.55
-189.959 55.6379 2462.55
-144.153 32.2673 1428.16
-144.535 32.2673 1428.16
-191.475 55.4098 2452.46
-192.131 55.4098 2452.46
-192.787 55.4098 2452.46
-193.443 55.4098 2452.46
-194.098 55.4098 2452.46
-194.754 55.4098 2452.46
-195.41 55.4098 2452.46
-196.066 55.4098 2452.46
-196.721 55.4098 2452.46
-197.377 55.4098 2452.46
-198.033 55.4098 2452.46
-198.689 55.4098 2452.46
-199.344 55.4098 2452.46
-200 55.4098 2452.46
-201.152 55.6379 2462.55
-202.314 55.8678 2472.73
-202.469 55.6379 2462.55
-203.128 55.6379 2462.55
-203.786 55.6379 2462.55
-204.444 55.6379 2462.55
-205.103 55.6379 2462.55
-207.333 56.3333 2493.33
-208 56.3333 2493.33
-208.667 56.3333 2493.33
-212.085 57.5319 2546.38
-212.766 57.5319 2546.38
-155.749 32.657 1445.41
-156.135 32.657 1445.41
-211.452 56.0996 2482.99
-212.116 56.0996 2482.99
-212.78 56.0996 2482.99
-213.444 56.0996 2482.99
-214.108 56.0996 2482.99
-214.772 56.0996 2482.99
-215.436 56.0996 2482.99
-216.667 56.3333 2493.33
-217.908 56.569 2503.77
-218.577 56.569 2503.77
-219.247 56.569 2503.77
-219.916 56.569 2503.77
-220.586 56.569 2503.77
-221.255 56.569 2503.77
-221.925 56.569 2503.77
-222.594 56.569 2503.77
-223.264 56.569 2503.77
-223.933 56.569 2503.77
-224.603 56.569 2503.77
-225.272 56.569 2503.77
91.5942 66.087 2890.82
90.8213 66.087 2890.82
90.0483 66.087 2890.82
89.2754 66.087 2890.82
88.5024 66.087 2890.82
67.7447 58.2128 2546.38
12.16 36.48 1595.73
11.7333 36.48 1595.73
11.7962 36.6756 1604.29
11.6129 36.7742 1608.6
11.6757 36.973 1617.3
13.7778 38 1662.22
13.3333 38 1662.22
13.1476 38.1058 1666.85
15.0857 39.0857 1709.71
14.8997 39.1977 1714.61
14.4413 39.1977 1714.61
14.7977 39.5376 1729.48
14.8837 39.7674 1739.53
14.4186 39.7674 1739.53
14.2274 39.8834 1744.61
14.3109 40.1173 1754.84
13.5673 40 1749.71
13.3724 40.1173 1754.84
12.9032 40.1173 1754.84
12.1637 40 1749.71
11.6959 40 1749.71
9.39828 39.1977 1714.61
7.43662 38.5352 1685.63
68.4615 65.7692 2876.92
67.6923 65.7692 2876.92
66.9231 65.7692 2876.92
66.1538 65.7692 2876.92
49.7854 58.7124 2568.24
48.547 58.4615 2557.26
47.8632 58.4615 2557.26
47.1795 58.4615 2557.26
46.4957 58.4615 2557.26
45.812 58.4615 2557.26
45.1282 58.4615 2557.26
44.4444 58.4615 2557.26
43.7607 58.4615 2557.26
43.0769 58.4615 2557.26
42.3932 58.4615 2557.26
41.7094 58.4615 2557.26
41.0256 58.4615 2557.26
40.3419 58.4615 2557.26
39.6581 58.4615 2557.26
39.485 58.7124 2568.24
38.7983 58.7124 2568.24
38.1116 58.7124 2568.24
37.4249 58.7124 2568.24
36.7382 58.7124 2568.24
36.0515 58.7124 2568.24
35.3648 58.7124 2568.24
34.6781 58.7124 2568.24
33.9914 58.7124 2568.24
33.3047 58.7124 2568.24
32.618 58.7124 2568.24
31.9313 58.7124 2568.24
31.2446 58.7124 2568.24
31.0345 58.9655 2579.31
30.3448 58.9655 2579.31
29.6552 58.9655 2579.31
28.9655 58.9655 2579.31
28.2759 58.9655 2579.31
27.5862 58.9655 2579.31
26.8966 58.9655 2579.31
26.2069 58.9655 2579.31
25.5172 58.9655 2579.31
24.8276 58.9655 2579.31
24.1379 58.9655 2579.31
23.4483 58.9655 2579.31
23.2035 59.2208 2590.48
22.5108 59.2208 2590.48
21.8182 59.2208 2590.48
21.1255 59.2208 2590.48
20.4329 59.2208 2590.48
19.7403 59.2208 2590.48
19.0476 59.2208 2590.48
18.355 59.2208 2590.48
17.6623 59.2208 2590.48
16.9697 59.2208 2590.48
16.2771 59.2208 2590.48
15.5844 59.2208 2590.48
14.8918 59.2208 2590.48
14.1991 59.2208 2590.48
13.5065 59.2208 2590.48
12.8139 59.2208 2590.48
12.1212 59.2208 2590.48
11.4286 59.2208 2590.48
10.7359 59.2208 2590.48
10.0433 59.2208 2590.48
9.35065 59.2208 2590.48
8.65801 59.2208 2590.48
8.73362 59.738 2613.1
7.65217 59.4783 2601.74
6.95652 59.4783 2601.74
6.26087 59.4783 2601.74
5.19481 59.2208 2590.48
4.50216 59.2208 2590.48
4.17391 59.4783 2601.74
3.47826 59.4783 2601.74
2.42424 59.2208 2590.48
1.7316 59.2208 2590.48
1.3913 59.4783 2601.74
0.695652 59.4783 2601.74
-0 59.4783 2601.74
-0.695652 59.4783 2601.74
-1.7316 59.2208 2590.48
-2.42424 59.2208 2590.48
-3.11688 59.2208 2590.48
-3.80952 59.2208 2590.48
-4.50216 59.2208 2590.48
-4.86957 59.4783 2601.74
-5.56522 59.4783 2601.74
-6.26087 59.4783 2601.74
-6.95652 59.4783 2601.74
-7.65217 59.4783 2601.74
-8.34783 59.4783 2601.74
-9.04348 59.4783 2601.74
-9.73913 59.4783 2601.74
-10.131 59.738 2613.1
-10.8297 59.738 2613.1
-11.2281 60 2624.56
-11.9298 60 2624.56
-12.6316 60 2624.56
-13.3333 60 2624.56
-14.0351 60 2624.56
-14.7368 60 2624.56
-15.4386 60 2624.56
-16.1404 60 2624.56
-16.5639 60.2643 2636.12
-17.2687 60.2643 2636.12
-17.9736 60.2643 2636.12
-18.6784 60.2643 2636.12
-19.3833 60.2643 2636.12
-20.0881 60.2643 2636.12
-20.793 60.2643 2636.12
-21.4978 60.2643 2636.12
-22.2026 60.2643 2636.12
-22.9075 60.2643 2636.12
-23.6123 60.2643 2636.12
-49.9048 32.5714 1424.76
-51.8284 30.8804 1350.79
-52.0635 31.0204 1356.92
-52.3636 31.0909 1360
-53.3925 30.3326 1326.83
-53.6889 30.4 1329.78
-54.0444 30.4 1329.78
-30.1299 59.2208 2590.48
-30.8225 59.2208 2590.48
-31.5152 59.2208 2590.48
-32.2078 59.2208 2590.48
-32.9004 59.2208 2590.48
-33.5931 59.2208 2590.48
-34.2857 59.2208 2590.48
-34.9784 59.2208 2590.48
-35.671 59.2208 2590.48
-36.3636 59.2208 2590.48
-37.0563 59.2208 2590.48
-37.7489 59.2208 2590.48
-38.4416 59.2208 2590.48
-39.1342 59.2208 2590.48
-39.8268 59.2208 2590.48
-40.3478 59.4783 2601.74
-41.0435 59.4783 2601.74
-41.7391 59.4783 2601.74
-42.5974 59.2208 2590.48
-43.29 59.2208 2590.48
-43.9827 59.2208 2590.48
-44.6753 59.2208 2590.48
-45.5172 58.9655 2579.31
-46.2069 58.9655 2579.31
-46.8966 58.9655 2579.31
-47.5862 58.9655 2579.31
-48.2759 58.9655 2579.31
-48.9655 58.9655 2579.31
-49.6552 58.9655 2579.31
-50.3448 58.9655 2579.31
-51.0345 58.9655 2579.31
-51.7241 58.9655 2579.31
-52.4138 58.9655 2579.31
-53.1034 58.9655 2579.31
-53.7931 58.9655 2579.31
-54.4828 58.9655 2579.31
-55.1724 58.9655 2579.31
-55.8621 58.9655 2579.31
-56.5517 58.9655 2579.31
-57.2414 58.9655 2579.31
-57.931 58.9655 2579.31
-58.6207 58.9655 2579.31
-59.3103 58.9655 2579.31
-60 58.9655 2579.31
-60.6897 58.9655 2579.31
-61.3793 58.9655 2579.31
-62.069 58.9655 2579.31
-62.7586 58.9655 2579.31
-63.4483 58.9655 2579.31
-64.206 58.7124 2568.24
-64.8276 58.9655 2579.31
-65.5172 58.9655 2579.31
-66.2069 58.9655 2579.31
-66.8966 58.9655 2579.31
-67.5862 58.9655 2579.31
-68.2759 58.9655 2579.31
-68.9655 58.9655 2579.31
-69.6552 58.9655 2579.31
-70.3448 58.9655 2579.31
-71.0345 58.9655 2579.31
-71.7241 58.9655 2579.31
-72.4138 58.9655 2579.31
-73.1034 58.9655 2579.31
-73.7931 58.9655 2579.31
-74.4828 58.9655 2579.31
-75.1724 58.9655 2579.31
-75.8621 58.9655 2579.31
-76.5517 58.9655 2579.31
-77.2414 58.9655 2579.31
-77.931 58.9655 2579.31
-78.6207 58.9655 2579.31
-79.3103 58.9655 2579.31
-80 58.9655 2579.31
-80.6897 58.9655 2579.31
-81.3793 58.9655 2579.31
-82.069 58.9655 2579.31
-82.7586 58.9655 2579.31
-83.4483 58.9655 2579.31
-84.1379 58.9655 2579.31
-84.8276 58.9655 2579.31
-85.5172 58.9655 2579.31
-86.2069 58.9655 2579.31
-86.8966 58.9655 2579.31
-87.5862 58.9655 2579.31
-88.2759 58.9655 2579.31
-88.9655 58.9655 2579.31
-89.6552 58.9655 2579.31
-90.3448 58.9655 2579.31
-91.0345 58.9655 2579.31
-91.7241 58.9655 2579.31
-92.4138 58.9655 2579.31
-93.1034 58.9655 2579.31
-93.8528 59.2208 2590.48
-94.5455 59.2208 2590.48
-95.2381 59.2208 2590.48
-95.9307 59.2208 2590.48
-96.6234 59.2208 2590.48
-97.316 59.2208 2590.48
-98.0087 59.2208 2590.48
-98.7013 59.2208 2590.48
-99.3939 59.2208 2590.48
-100.087 59.2208 2590.48
-100.779 59.2208 2590.48
-101.472 59.2208 2590.48
-102.165 59.2208 2590.48
-102.857 59.2208 2590.48
-103.55 59.2208 2590.48
-104.242 59.2208 2590.48
-104.935 59.2208 2590.48
-106.429 61.0714 2671.43
-107.143 61.0714 2671.43
-107.733 60.8 2659.56
-108.319 60.531 2647.79
-108.398 59.2208 2590.48
-109.217 59.4783 2601.74
-109.913 59.4783 2601.74
-110.742 59.738 2613.1
-111.304 59.4783 2601.74
-112 59.4783 2601.74
-112.696 59.4783 2601.74
-113.247 59.2208 2590.48
-113.939 59.2208 2590.48
-114.632 59.2208 2590.48
-115.172 58.9655 2579.31
-115.708 58.7124 2568.24
-116.395 58.7124 2568.24
-116.923 58.4615 2557.26
-117.447 58.2128 2546.38
-117.966 57.9661 2535.59
-118.481 57.7215 2524.89
-119.156 57.7215 2524.89
-119.831 57.7215 2524.89
-120.506 57.7215 2524.89
-121.181 57.7215 2524.89
-121.681 57.479 2514.29
-122.353 57.479 2514.29
-123.025 57.479 2514.29
-123.697 57.479 2514.29
-124.37 57.479 2514.29
-125.042 57.479 2514.29
-125.714 57.479 2514.29
-126.387 57.479 2514.29
-127.257 57.7215 2524.89
-127.932 57.7215 2524.89
-128.403 57.479 2514.29
-129.283 57.7215 2524.89
-130.169 57.9661 2535.59
-130.847 57.9661 2535.59
-131.525 57.9661 2535.59
-132.426 58.2128 2546.38
-132.881 57.9661 2535.59
-133.559 57.9661 2535.59
-134.237 57.9661 2535.59
-134.915 57.9661 2535.59
-135.83 58.2128 2546.38
-136.511 58.2128 2546.38
-137.191 58.2128 2546.38
-137.872 58.2128 2546.38
-138.305 57.9661 2535.59
-138.983 57.9661 2535.59
-139.661 57.9661 2535.59
-140.339 57.9661 2535.59
-141.017 57.9661 2535.59
-141.695 57.9661 2535.59
-142.373 57.9661 2535.59
-143.051 57.9661 2535.59
-143.46 57.7215 2524.89
-144.135 57.7215 2524.89
-145.085 57.9661 2535.59
-145.763 57.9661 2535.59
-146.723 58.2128 2546.38
-147.119 57.9661 2535.59
-147.797 57.9661 2535.59
-129.723 42.0923 1841.23
-130.215 42.0923 1841.23
-154.57 61.9005 2707.69
-132.163 42.884 1875.86
-150.886 57.7215 2524.89
-151.561 57.7215 2524.89
-152.236 57.7215 2524.89
-152.911 57.7215 2524.89
-153.586 57.7215 2524.89
-154.262 57.7215 2524.89
-154.937 57.7215 2524.89
-155.612 57.7215 2524.89
-156.287 57.7215 2524.89
-156.962 57.7215 2524.89
-157.637 57.7215 2524.89
-158.312 57.7215 2524.89
-158.655 57.479 2514.29
-157.695 56.2963 2462.55
-154.375 53.4375 2337.5
-154.708 53.2296 2328.4
-155.331 53.2296 2328.4
-126.038 32.2642 1411.32
-126.415 32.2642 1411.32
-162.324 56.7635 2482.99
-162.988 56.7635 2482.99
-163.306 56.5289 2472.73
-163.967 56.5289 2472.73
-164.628 56.5289 2472.73
-136.548 37.4795 1639.45
-165.95 56.5289 2472.73
-166.255 56.2963 2462.55
-166.914 56.2963 2462.55
-167.572 56.2963 2462.55
-161.521 52.0152 2275.29
-161.818 51.8182 2266.67
-162.424 51.8182 2266.67
-163.346 52.0152 2275.29
-163.636 51.8182 2266.67
-172.667 57 2493.33
-173.333 57 2493.33
-174 57 2493.33
-174.274 56.7635 2482.99
-174.938 56.7635 2482.99
-175.207 56.5289 2472.73
-175.868 56.5289 2472.73
-176.132 56.2963 2462.55
-176.79 56.2963 2462.55
-177.449 56.2963 2462.55
-178.107 56.2963 2462.55
-178.765 56.2963 2462.55
-179.424 56.2963 2462.55
-180.082 56.2963 2462.55
-180.741 56.2963 2462.55
-182.667 57 2493.33
-183.333 57 2493.33
-183.568 56.7635 2482.99
-184.232 56.7635 2482.99
-168.392 47.8322 2092.31
-168.641 47.6655 2085.02
-185.35 56.2963 2462.55
-186.008 56.2963 2462.55
-186.667 56.2963 2462.55
-187.325 56.2963 2462.55
-187.984 56.2963 2462.55
-188.642 56.2963 2462.55
-188.852 56.0656 2452.46
-189.959 56.2963 2462.55
-190.617 56.2963 2462.55
-144.535 32.6492 1428.16
-191.475 56.0656 2452.46
-192.131 56.0656 2452.46
-192.787 56.0656 2452.46
-193.443 56.0656 2452.46
-194.098 56.0656 2452.46
-194.754 56.0656 2452.46
-195.41 56.0656 2452.46
-196.066 56.0656 2452.46
-196.721 56.0656 2452.46
-197.86 56.2963 2462.55
-198.519 56.2963 2462.55
-199.177 56.2963 2462.55
-199.835 56.2963 2462.55
-200.494 56.2963 2462.55
-201.152 56.2963 2462.55
-201.811 56.2963 2462.55
-202.469 56.2963 2462.55
-203.128 56.2963 2462.55
-203.786 56.2963 2462.55
-204.444 56.2963 2462.55
-206.667 57 2493.33
-207.333 57 2493.33
-208 57 2493.33
-208.667 57 2493.33
-209.333 57 2493.33
-155.362 33.0435 1445.41
-210.667 57 2493.33
-210.788 56.7635 2482.99
-211.452 56.7635 2482.99
-212.116 56.7635 2482.99
-212.78 56.7635 2482.99
-213.444 56.7635 2482.99
-214.108 56.7635 2482.99
-214.772 56.7635 2482.99
-215.436 56.7635 2482.99
-216.667 57 2493.33
-217.908 57.2385 2503.77
-218.577 57.2385 2503.77
-219.247 57.2385 2503.77
-219.916 57.2385 2503.77
-220.586 57.2385 2503.77
-221.255 57.2385 2503.77
-221.925 57.2385 2503.77
-222.594 57.2385 2503.77
-223.264 57.2385 2503.77
-223.933 57.2385 2503.77
-224.603 57.2385 2503.77
-225.272 57.2385 2503.77
91.5942 66.8599 2890.82
90.8213 66.8599 2890.82
90.0483 66.8599 2890.82
89.2754 66.8599 2890.82
88.5024 66.8599 2890.82
67.1186 58.6441 2535.59
66.4407 58.6441 2535.59
10.7652 36.5172 1578.89
11.3067 36.9067 1595.73
10.88 36.9067 1595.73
10.4533 36.9067 1595.73
9.78723 36.8085 1591.49
13.3333 38.4444 1662.22
13.1476 38.5515 1666.85
15.3582 39.6562 1714.61
14.8997 39.6562 1714.61
14.4413 39.6562 1714.61
14.7977 40 1729.48
14.8837 40.2326 1739.53
14.4186 40.2326 1739.53
14.2274 40.3499 1744.61
13.7609 40.3499 1744.61
13.5673 40.4678 1749.71
13.0994 40.4678 1749.71
12.093 40.2326 1739.53
10.0571 39.5429 1709.71
8.58757 39.096 1690.4
8.38527 39.2068 1695.18
67.8095 65.9048 2849.52
1.26316 36.4211 1574.74
67.6923 66.5385 2876.92
67.6329 66.8599 2890.82
66.8599 66.8599 2890.82
49.7854 59.3991 2568.24
48.547 59.1453 2557.26
47.8632 59.1453 2557.26
47.1795 59.1453 2557.26
46.4957 59.1453 2557.26
45.812 59.1453 2557.26
45.1282 59.1453 2557.26
44.4444 59.1453 2557.26
43.7607 59.1453 2557.26
43.0769 59.1453 2557.26
42.3932 59.1453 2557.26
41.7094 59.1453 2557.26
41.0256 59.1453 2557.26
40.3419 59.1453 2557.26
39.6581 59.1453 2557.26
39.485 59.3991 2568.24
38.7983 59.3991 2568.24
38.1116 59.3991 2568.24
37.4249 59.3991 2568.24
36.7382 59.3991 2568.24
36.0515 59.3991 2568.24
35.3648 59.3991 2568.24
34.6781 59.3991 2568.24
33.9914 59.3991 2568.24
33.3047 59.3991 2568.24
32.618 59.3991 2568.24
31.9313 59.3991 2568.24
31.2446 59.3991 2568.24
31.0345 59.6552 2579.31
30.3448 59.6552 2579.31
29.6552 59.6552 2579.31
28.9655 59.6552 2579.31
28.2759 59.6552 2579.31
27.5862 59.6552 2579.31
26.8966 59.6552 2579.31
26.2069 59.6552 2579.31
25.5172 59.6552 2579.31
24.8276 59.6552 2579.31
24.1379 59.6552 2579.31
23.4483 59.6552 2579.31
23.2035 59.9134 2590.48
22.5108 59.9134 2590.48
21.8182 59.9134 2590.48
21.1255 59.9134 2590.48
20.4329 59.9134 2590.48
19.7403 59.9134 2590.48
19.0476 59.9134 2590.48
18.355 59.9134 2590.48
17.6623 59.9134 2590.48
16.9697 59.9134 2590.48
16.2771 59.9134 2590.48
15.5844 59.9134 2590.48
14.8918 59.9134 2590.48
14.1991 59.9134 2590.48
13.5065 59.9134 2590.48
12.8139 59.9134 2590.48
12.1212 59.9134 2590.48
11.4286 59.9134 2590.48
10.7359 59.9134 2590.48
10.0433 59.9134 2590.48
9.35065 59.9134 2590.48
8.65801 59.9134 2590.48
7.96537 59.9134 2590.48
7.65217 60.1739 2601.74
6.58009 59.9134 2590.48
6.26087 60.1739 2601.74
5.56522 60.1739 2601.74
4.86957 60.1739 2601.74
4.17391 60.1739 2601.74
3.47826 60.1739 2601.74
2.78261 60.1739 2601.74
2.08696 60.1739 2601.74
1.3913 60.1739 2601.74
0.695652 60.1739 2601.74
-0 60.1739 2601.74
-1.03896 59.9134 2590.48
-1.7316 59.9134 2590.48
-2.42424 59.9134 2590.48
-3.11688 59.9134 2590.48
-3.80952 59.9134 2590.48
-4.50216 59.9134 2590.48
-5.19481 59.9134 2590.48
-5.88745 59.9134 2590.48
-6.58009 59.9134 2590.48
-7.27273 59.9134 2590.48
-7.65217 60.1739 2601.74
-8.34783 60.1739 2601.74
-9.04348 60.1739 2601.74
-9.73913 60.1739 2601.74
-10.4348 60.1739 2601.74
-10.8297 60.4367 2613.1
-11.2281 60.7018 2624.56
-11.9298 60.7018 2624.56
-12.6316 60.7018 2624.56
-13.3333 60.7018 2624.56
-14.0351 60.7018 2624.56
-14.7368 60.7018 2624.56
-15.4386 60.7018 2624.56
-16.1404 60.7018 2624.56
-16.8421 60.7018 2624.56
-17.2687 60.9692 2636.12
-17.9736 60.9692 2636.12
-18.6784 60.9692 2636.12
-19.3833 60.9692 2636.12
-20.0881 60.9692 2636.12
-20.793 60.9692 2636.12
-21.4978 60.9692 2636.12
-22.2026 60.9692 2636.12
-22.9075 60.9692 2636.12
-23.6123 60.9692 2636.12
-49.9048 32.9524 1424.76
-50.2857 32.9524 1424.76
-52.0635 31.3832 1356.92
-53.0377 30.6874 1326.83
-53.3333 30.7556 1329.78
-53.6889 30.7556 1329.78
-54.0444 30.7556 1329.78
-30.1299 59.9134 2590.48
-30.8225 59.9134 2590.48
-31.5152 59.9134 2590.48
-32.2078 59.9134 2590.48
-32.9004 59.9134 2590.48
-33.5931 59.9134 2590.48
-34.2857 59.9134 2590.48
-34.9784 59.9134 2590.48
-35.671 59.9134 2590.48
-36.3636 59.9134 2590.48
-37.0563 59.9134 2590.48
-37.7489 59.9134 2590.48
-38.4416 59.9134 2590.48
-39.1342 59.9134 2590.48
-39.8268 59.9134 2590.48
-40.5195 59.9134 2590.48
-41.2121 59.9134 2590.48
-41.9048 59.9134 2590.48
-42.7586 59.6552 2579.31
-43.4483 59.6552 2579.31
-44.1379 59.6552 2579.31
-44.8276 59.6552 2579.31
-45.5172 59.6552 2579.31
-46.2069 59.6552 2579.31
-46.8966 59.6552 2579.31
-47.5862 59.6552 2579.31
-48.2759 59.6552 2579.31
-48.9655 59.6552 2579.31
-49.6552 59.6552 2579.31
-50.3448 59.6552 2579.31
-51.0345 59.6552 2579.31
-51.7241 59.6552 2579.31
-52.4138 59.6552 2579.31
-53.1034 59.6552 2579.31
-53.7931 59.6552 2579.31
-54.4828 59.6552 2579.31
-55.1724 59.6552 2579.31
-55.8621 59.6552 2579.31
-56.5517 59.6552 2579.31
-57.2414 59.6552 2579.31
-58.0258 59.3991 2568.24
-58.7124 59.3991 2568.24
-59.3103 59.6552 2579.31
-60.0858 59.3991 2568.24
-60.7725 59.3991 2568.24
-61.4592 59.3991 2568.24
-62.1459 59.3991 2568.24
-62.7586 59.6552 2579.31
-63.5193 59.3991 2568.24
-64.206 59.3991 2568.24
-64.8276 59.6552 2579.31
-65.5172 59.6552 2579.31
-66.2069 59.6552 2579.31
-66.8966 59.6552 2579.31
-67.5862 59.6552 2579.31
-68.2759 59.6552 2579.31
-68.9655 59.6552 2579.31
-69.6552 59.6552 2579.31
-70.3448 59.6552 2579.31
-71.0345 59.6552 2579.31
-71.7241 59.6552 2579.31
-72.4138 59.6552 2579.31
-73.1034 59.6552 2579.31
-73.7931 59.6552 2579.31
-74.4828 59.6552 2579.31
-75.1724 59.6552 2579.31
-75.8621 59.6552 2579.31
-76.5517 59.6552 2579.31
-77.2414 59.6552 2579.31
-77.931 59.6552 2579.31
-78.6207 59.6552 2579.31
-79.3103 59.6552 2579.31
-80 59.6552 2579.31
-80.6897 59.6552 2579.31
-81.3793 59.6552 2579.31
-82.069 59.6552 2579.31
-82.7586 59.6552 2579.31
-83.4483 59.6552 2579.31
-84.1379 59.6552 2579.31
-84.8276 59.6552 2579.31
-85.5172 59.6552 2579.31
-86.2069 59.6552 2579.31
-86.8966 59.6552 2579.31
-87.5862 59.6552 2579.31
-88.2759 59.6552 2579.31
-88.9655 59.6552 2579.31
-89.6552 59.6552 2579.31
-90.3448 59.6552 2579.31
-91.0345 59.6552 2579.31
-91.7241 59.6552 2579.31
-92.4138 59.6552 2579.31
-93.1034 59.6552 2579.31
-93.7931 59.6552 2579.31
-94.4828 59.6552 2579.31
-95.2381 59.9134 2590.48
-95.9307 59.9134 2590.48
-96.6234 59.9134 2590.48
-97.316 59.9134 2590.48
-98.0087 59.9134 2590.48
-98.7013 59.9134 2590.48
-99.3939 59.9134 2590.48
-100.087 59.9134 2590.48
-100.779 59.9134 2590.48
-101.472 59.9134 2590.48
-102.165 59.9134 2590.48
-102.857 59.9134 2590.48
-103.55 59.9134 2590.48
-104.242 59.9134 2590.48
-104.935 59.9134 2590.48
-106.429 61.7857 2671.43
-107.143 61.7857 2671.43
-107.733 61.5111 2659.56
-108.319 61.2389 2647.79
-108.398 59.9134 2590.48
-109.217 60.1739 2601.74
-109.913 60.1739 2601.74
-110.742 60.4367 2613.1
