60.6278 93.6323 2683.41
58.6667 92.8 2659.56
57.3451 92.3894 2647.79
56.0352 91.9824 2636.12
55.3304 91.9824 2636.12
52.8696 90.7826 2601.74
52.1739 90.7826 2601.74
49.2308 89.2308 2557.26
48.547 89.2308 2557.26
47.8632 89.2308 2557.26
46.6383 88.8511 2546.38
43.8494 87.364 2503.77
43.6975 87.7311 2514.29
44.5957 88.8511 2546.38
44.4444 89.2308 2557.26
43.7607 89.2308 2557.26
43.0769 89.2308 2557.26
42.3932 89.2308 2557.26
41.7094 89.2308 2557.26
41.0256 89.2308 2557.26
40.3419 89.2308 2557.26
39.6581 89.2308 2557.26
38.9744 89.2308 2557.26
38.2906 89.2308 2557.26
37.6068 89.2308 2557.26
36.9231 89.2308 2557.26
36.2393 89.2308 2557.26
35.5556 89.2308 2557.26
35.3648 89.6137 2568.24
34.6781 89.6137 2568.24
33.9914 89.6137 2568.24
33.3047 89.6137 2568.24
32.618 89.6137 2568.24
31.9313 89.6137 2568.24
31.2446 89.6137 2568.24
30.5579 89.6137 2568.24
30.3448 90 2579.31
29.6552 90 2579.31
28.9655 90 2579.31
28.2759 90 2579.31
27.5862 90 2579.31
26.8966 90 2579.31
26.2069 90 2579.31
25.5172 90 2579.31
24.8276 90 2579.31
24.1379 90 2579.31
23.4483 90 2579.31
22.7586 90 2579.31
22.069 90 2579.31
21.3793 90 2579.31
24.2857 93.2143 2671.43
19.5708 89.6137 2568.24
18.8841 89.6137 2568.24
18.1974 89.6137 2568.24
17.5107 89.6137 2568.24
16.824 89.6137 2568.24
16.1373 89.6137 2568.24
15.4506 89.6137 2568.24
14.7639 89.6137 2568.24
14.0773 89.6137 2568.24
13.3906 89.6137 2568.24
12.7039 89.6137 2568.24
12.0172 89.6137 2568.24
-24.4386 54.517 1562.4
11.0345 90 2579.31
10.3448 90 2579.31
9.65517 90 2579.31
8.96552 90 2579.31
8.27586 90 2579.31
-0 82.2047 2355.91
-0.629921 82.2047 2355.91
-0.634921 82.8571 2374.6
5.88745 90.3896 2590.48
5.19481 90.3896 2590.48
4.50216 90.3896 2590.48
3.80952 90.3896 2590.48
3.11688 90.3896 2590.48
2.42424 90.3896 2590.48
1.7316 90.3896 2590.48
1.03896 90.3896 2590.48
-11.0037 77.6208 2224.54
-11.5985 77.6208 2224.54
-1.71674 89.6137 2568.24
-2.40343 89.6137 2568.24
-3.09013 89.6137 2568.24
-3.77682 89.6137 2568.24
-4.46352 89.6137 2568.24
-5.15021 89.6137 2568.24
-5.83691 89.6137 2568.24
-18.4173 75.1079 2152.52
-7.2103 89.6137 2568.24
-18.0074 77.048 2208.12
-17.4436 78.4962 2249.62
-10.1695 88.4746 2535.59
-19.3309 77.6208 2224.54
-10.9402 89.2308 2557.26
-11.3305 89.6137 2568.24
-16.8924 83.1873 2384.06
-11.2281 91.5789 2624.56
-11.9298 91.5789 2624.56
-14.0773 89.6137 2568.24
-14.7639 89.6137 2568.24
-15.7265 89.2308 2557.26
-16.1373 89.6137 2568.24
-16.824 89.6137 2568.24
-21.5261 83.8554 2403.21
-18.4615 89.2308 2557.26
-19.1453 89.2308 2557.26
-19.8291 89.2308 2557.26
-20.5128 89.2308 2557.26
-21.1966 89.2308 2557.26
-21.8803 89.2308 2557.26
-22.5641 89.2308 2557.26
-23.0043 89.6137 2568.24
-23.9316 89.2308 2557.26
-24.6154 89.2308 2557.26
-25.2991 89.2308 2557.26
-25.9829 89.2308 2557.26
-26.6667 89.2308 2557.26
-27.3504 89.2308 2557.26
-28.0342 89.2308 2557.26
-28.7179 89.2308 2557.26
-29.1845 89.6137 2568.24
-29.8712 89.6137 2568.24
-30.5579 89.6137 2568.24
-31.453 89.2308 2557.26
-32.1368 89.2308 2557.26
-32.618 89.6137 2568.24
-33.3047 89.6137 2568.24
-33.9914 89.6137 2568.24
-34.8718 89.2308 2557.26
-35.5556 89.2308 2557.26
-36.0515 89.6137 2568.24
-36.7382 89.6137 2568.24
-37.4249 89.6137 2568.24
-38.1116 89.6137 2568.24
-38.7983 89.6137 2568.24
-39.485 89.6137 2568.24
-40.1717 89.6137 2568.24
-40.8584 89.6137 2568.24
-41.5451 89.6137 2568.24
-42.2318 89.6137 2568.24
-42.9185 89.6137 2568.24
-43.6052 89.6137 2568.24
-44.2918 89.6137 2568.24
-44.9785 89.6137 2568.24
-45.6652 89.6137 2568.24
-46.3519 89.6137 2568.24
-48 87 2493.33
-47.7253 89.6137 2568.24
-50.7937 82.8571 2374.6
-48.9655 90 2579.31
-49.7854 89.6137 2568.24
-50.087 90.7826 2601.74
-50.9091 90.3896 2590.48
-51.7241 90 2579.31
-52.4138 90 2579.31
-53.1034 90 2579.31
-53.7931 90 2579.31
-54.4828 90 2579.31
-63.7288 58.9831 1690.4
-55.5459 91.179 2613.1
-56.2445 91.179 2613.1
-60.0755 78.7925 2258.11
-65.8172 57.8393 1657.62
-58.7124 89.6137 2568.24
-61.6092 80 2292.72
-63.4875 74.306 2129.54
-60.6897 90 2579.31
-61.4592 89.6137 2568.24
-62.1459 89.6137 2568.24
-62.8326 89.6137 2568.24
-63.5193 89.6137 2568.24
-64.206 89.6137 2568.24
-64.9573 89.2308 2557.26
-65.641 89.2308 2557.26
-66.3248 89.2308 2557.26
-67.0085 89.2308 2557.26
-67.7447 88.8511 2546.38
-68.4255 88.8511 2546.38
-69.1064 88.8511 2546.38
-69.5652 90.7826 2601.74
-73.8462 57.3626 1643.96
-71.1489 88.8511 2546.38
-71.8644 88.4746 2535.59
-72.5424 88.4746 2535.59
-73.2203 88.4746 2535.59
-73.8983 88.4746 2535.59
-74.5763 88.4746 2535.59
-75.2542 88.4746 2535.59
-75.9322 88.4746 2535.59
-77.5385 64.2462 1841.23
-77.8007 71.7526 2056.36
-77.9661 88.4746 2535.59
-78.6441 88.4746 2535.59
-79.322 88.4746 2535.59
-80 88.4746 2535.59
-80.678 88.4746 2535.59
-81.3559 88.4746 2535.59
-82.0339 88.4746 2535.59
-82.7119 88.4746 2535.59
-83.3898 88.4746 2535.59
-84.0678 88.4746 2535.59
-84.7458 88.4746 2535.59
-85.4237 88.4746 2535.59
-83.9669 57.5207 1648.48
-86.867 89.6137 2568.24
-87.5862 90 2579.31
-88.2759 90 2579.31
-88.9655 90 2579.31
-89.6552 90 2579.31
-90.3448 90 2579.31
-91.0345 90 2579.31
-91.7241 90 2579.31
-92.4138 90 2579.31
-93.0472 89.6137 2568.24
-93.7339 89.6137 2568.24
-94.4206 89.6137 2568.24
-92.9889 77.048 2208.12
-95.794 89.6137 2568.24
-96.4103 89.2308 2557.26
-97.094 89.2308 2557.26
-97.7778 89.2308 2557.26
-98.4615 89.2308 2557.26
-99.1453 89.2308 2557.26
-100.087 90.3896 2590.48
-100.779 90.3896 2590.48
-101.288 89.6137 2568.24
-101.974 89.6137 2568.24
-102.661 89.6137 2568.24
-97.492 67.1383 1924.12
-97.9487 66.9231 1917.95
-98.4615 66.9231 1917.95
-98.9744 66.9231 1917.95
-99.4872 66.9231 1917.95
-107.13 90.7826 2601.74
-100.317 66.2857 1899.68
-100.958 66.7093 1911.82
-100.241 62.8916 1802.41
-100.661 62.7027 1797
-102.208 65.8675 1887.7
-110.638 88.8511 2546.38
-103 65.25 1870
-112.137 89.2308 2557.26
-103.704 64.4444 1846.91
-112.803 87.364 2503.77
-104.615 64.2462 1841.23
-105.108 64.2462 1841.23
-105.6 64.2462 1841.23
-105.933 63.8532 1829.97
-106.422 63.8532 1829.97
-105.581 60.6977 1739.53
-117.806 88.1013 2524.89
-124.058 100.87 2890.82
-121.244 92.8 2659.56
-121.404 91.5789 2624.56
-120.851 88.8511 2546.38
-121.356 88.4746 2535.59
-122.034 88.4746 2535.59
-128.462 100.385 2876.92
-129.709 101.359 2904.85
-120 80.3077 2301.54
-120.772 80.6178 2310.42
-121.39 80.6178 2310.42
-122.008 80.6178 2310.42
-122.625 80.6178 2310.42
-125.714 85.2245 2442.45
-131.636 94.9091 2720
-127.407 85.9259 2462.55
-128.87 87.364 2503.77
-129.748 87.7311 2514.29
-108.037 48.785 1398.13
-108.411 48.785 1398.13
-132.426 88.8511 2546.38
-133.106 88.8511 2546.38
-133.559 88.4746 2535.59
-138.182 94.9091 2720
-140 96.6667 2770.37
-135.126 87.7311 2514.29
-126.926 73.7809 2114.49
-127.491 73.7809 2114.49
-147.662 103.881 2977.11
-122.08 63.8532 1829.97
-132.331 78.4962 2249.62
-133.132 78.7925 2258.11
-134.144 79.3916 2275.29
-140.759 88.1013 2524.89
-141.435 88.1013 2524.89
-142.11 88.1013 2524.89
-142.785 88.1013 2524.89
-154.089 102.857 2947.78
-143.866 87.7311 2514.29
-144.538 87.7311 2514.29
-145.21 87.7311 2514.29
-145.882 87.7311 2514.29
-143.36 83.52 2393.6
-144 83.52 2393.6
-153.455 94.9091 2720
-149.153 88.4746 2535.59
-149.831 88.4746 2535.59
-150.211 88.1013 2524.89
-150.886 88.1013 2524.89
-151.261 87.7311 2514.29
-151.933 87.7311 2514.29
-152.605 87.7311 2514.29
-152.365 86.639 2482.99
-152.727 86.281 2472.73
-153.388 86.281 2472.73
-155.294 87.7311 2514.29
-133.97 62.3284 1786.27
-162.162 94.0541 2695.5
-162.883 94.0541 2695.5
-168.381 99.4286 2849.52
-159.322 88.4746 2535.59
-160 88.4746 2535.59
-168.148 96.6667 2770.37
-164.581 91.9824 2636.12
-138.138 62.7027 1797
-169.132 95.3425 2732.42
-163.038 88.1013 2524.89
-163.713 88.1013 2524.89
-164.388 88.1013 2524.89
-165.424 88.4746 2535.59
-166.102 88.4746 2535.59
-166.78 88.4746 2535.59
-167.089 88.1013 2524.89
-167.764 88.1013 2524.89
-168.814 88.4746 2535.59
-169.492 88.4746 2535.59
-170.94 89.2308 2557.26
-170.464 88.1013 2524.89
-171.139 88.1013 2524.89
-171.814 88.1013 2524.89
-172.489 88.1013 2524.89
-172.773 87.7311 2514.29
-173.445 87.7311 2514.29
-142.57 58.324 1671.51
-174.393 87.364 2503.77
-144.363 59.1501 1695.18
-175.732 87.364 2503.77
-170.353 81.8824 2346.67
-145.352 58.8169 1685.63
-160.275 71.7526 2056.36
-178.41 87.364 2503.77
-144.699 57.0492 1634.97
-176.911 84.878 2432.52
-180.418 87.364 2503.77
-181.088 87.364 2503.77
-181.333 87 2493.33
-179.918 85.2245 2442.45
-146.957 56.7391 1626.09
-198.66 99.9043 2863.16
-192.941 94.4796 2707.69
-148.076 56.5854 1621.68
-179.137 81.8824 2346.67
-165.946 70.5405 2021.62
-186.224 86.639 2482.99
-187.782 87.364 2503.77
-188.452 87.364 2503.77
-141.801 49.4787 1418.01
-142.033 49.3617 1414.66
-142.264 49.2453 1411.32
-142.494 49.1294 1408
-142.723 49.0141 1404.69
-169.6 69.6 1994.67
-191.276 85.9259 2462.55
-191.934 85.9259 2462.55
-192.593 85.9259 2462.55
-152.421 54.9474 1574.74
-161.893 61.7751 1770.41
-195.519 86.639 2482.99
-196.183 86.639 2482.99
-196.846 86.639 2482.99
-197.51 86.639 2482.99
-200.169 88.1013 2524.89
-200.336 87.7311 2514.29
-200.502 87.364 2503.77
-200.667 87 2493.33
-198.857 85.2245 2442.45
-199.51 85.2245 2442.45
-200.163 85.2245 2442.45
-199.355 84.1935 2412.9
-200.486 84.5344 2422.67
-200.161 83.8554 2403.21
-199.841 83.1873 2384.06
-204.959 86.281 2472.73
-205.62 86.281 2472.73
-206.281 86.281 2472.73
-206.942 86.281 2472.73
-208.133 86.639 2482.99
-208.797 86.639 2482.99
-208.926 86.281 2472.73
-209.587 86.281 2472.73
-210.248 86.281 2472.73
-217.739 90.7826 2601.74
-212.667 87 2493.33
-213.891 87.364 2503.77
-214.561 87.364 2503.77
-215.23 87.364 2503.77
-215.333 87 2493.33
-216 87 2493.33
-216.667 87 2493.33
-217.333 87 2493.33
-218 87 2493.33
-218.667 87 2493.33
-220.504 87.7311 2514.29
-221.176 87.7311 2514.29
-220.667 87 2493.33
-222.521 87.7311 2514.29
-222.594 87.364 2503.77
-223.866 87.7311 2514.29
-224.538 87.7311 2514.29
-225.21 87.7311 2514.29
-225.882 87.7311 2514.29
-229.06 89.2308 2557.26
-246.857 99.4286 2849.52
-228.523 88.1013 2524.89
-226.722 86.639 2482.99
94.8293 102.634 2919.02
94.902 103.137 2933.33
96.7164 104.677 2977.11
94.1872 103.645 2947.78
92.549 103.137 2933.33
90.9268 102.634 2919.02
90.1463 102.634 2919.02
87.7295 101.643 2890.82
90.2463 103.645 2947.78
89.4581 103.645 2947.78
83.0476 100.19 2849.52
81.5166 99.7156 2836.02
80.7583 99.7156 2836.02
78.4977 98.7793 2809.39
77.0093 98.3178 2796.26
75.5349 97.8605 2783.26
74.0741 97.4074 2770.37
76.9668 99.7156 2836.02
76.2085 99.7156 2836.02
69.7717 96.0731 2732.42
69.0411 96.0731 2732.42
71.0698 97.8605 2783.26
70.3256 97.8605 2783.26
64.2152 94.3498 2683.41
62.8571 93.9286 2671.43
65.3881 96.0731 2732.42
60.177 93.0973 2647.79
61.982 94.7748 2695.5
60.6278 94.3498 2683.41
56.8421 92.2807 2624.56
54.9565 91.4783 2601.74
57.8571 93.9286 2671.43
52.987 91.0823 2590.48
52.2944 91.0823 2590.48
52.1739 91.4783 2601.74
49.2308 89.9145 2557.26
48.547 89.9145 2557.26
47.8632 89.9145 2557.26
46.6383 89.5319 2546.38
45.9574 89.5319 2546.38
45.2766 89.5319 2546.38
44.5957 89.5319 2546.38
43.9149 89.5319 2546.38
43.234 89.5319 2546.38
42.5532 89.5319 2546.38
42.3932 89.9145 2557.26
41.7094 89.9145 2557.26
41.0256 89.9145 2557.26
40.3419 89.9145 2557.26
39.6581 89.9145 2557.26
38.9744 89.9145 2557.26
38.2906 89.9145 2557.26
37.6068 89.9145 2557.26
36.9231 89.9145 2557.26
36.2393 89.9145 2557.26
36.0515 90.3004 2568.24
35.3648 90.3004 2568.24
34.6781 90.3004 2568.24
33.9914 90.3004 2568.24
33.3047 90.3004 2568.24
32.618 90.3004 2568.24
31.9313 90.3004 2568.24
31.2446 90.3004 2568.24
30.5579 90.3004 2568.24
30.3448 90.6897 2579.31
29.6552 90.6897 2579.31
28.4979 90.3004 2568.24
28.2759 90.6897 2579.31
27.5862 90.6897 2579.31
26.8966 90.6897 2579.31
26.2069 90.6897 2579.31
25.5172 90.6897 2579.31
24.8276 90.6897 2579.31
24.1379 90.6897 2579.31
23.4483 90.6897 2579.31
22.7586 90.6897 2579.31
22.069 90.6897 2579.31
21.3793 90.6897 2579.31
20.6897 90.6897 2579.31
19.5708 90.3004 2568.24
18.8841 90.3004 2568.24
18.1974 90.3004 2568.24
17.5107 90.3004 2568.24
16.824 90.3004 2568.24
16.1373 90.3004 2568.24
15.4506 90.3004 2568.24
14.7639 90.3004 2568.24
14.0773 90.3004 2568.24
13.3906 90.3004 2568.24
1.20301 79.0977 2249.62
12.4138 90.6897 2579.31
11.7241 90.6897 2579.31
11.0345 90.6897 2579.31
10.3448 90.6897 2579.31
9.65517 90.6897 2579.31
8.96552 90.6897 2579.31
0.629921 82.8346 2355.91
-0 82.8346 2355.91
7.27273 91.0823 2590.48
6.58009 91.0823 2590.48
5.88745 91.0823 2590.48
5.19481 91.0823 2590.48
4.50216 91.0823 2590.48
3.80952 91.0823 2590.48
3.11688 91.0823 2590.48
2.42424 91.0823 2590.48
1.7316 91.0823 2590.48
-3.27869 86.2295 2452.46
-2.66667 87.6667 2493.33
-11.8519 77.9259 2216.3
-2.38298 89.5319 2546.38
-2.40343 90.3004 2568.24
-3.09013 90.3004 2568.24
-3.77682 90.3004 2568.24
-4.46352 90.3004 2568.24
-22.2517 69.6689 1981.46
-5.83691 90.3004 2568.24
-6.52361 90.3004 2568.24
-7.2103 90.3004 2568.24
-4.32432 94.7748 2695.5
-8.88889 89.9145 2557.26
-10.1695 89.1525 2535.59
-10.8475 89.1525 2535.59
-9.73913 91.4783 2601.74
-10.4348 91.4783 2601.74
-12.3077 89.9145 2557.26
-11.2281 92.2807 2624.56
-13.3906 90.3004 2568.24
-13.5065 91.0823 2590.48
-14.1991 91.0823 2590.48
-15.7265 89.9145 2557.26
-16.4103 89.9145 2557.26
-23.3846 80.9231 2301.54
-17.7778 89.9145 2557.26
-18.4615 89.9145 2557.26
-19.661 89.1525 2535.59
-19.8291 89.9145 2557.26
-20.5128 89.9145 2557.26
-21.1966 89.9145 2557.26
-21.8803 89.9145 2557.26
-22.5641 89.9145 2557.26
-23.0043 90.3004 2568.24
-23.9316 89.9145 2557.26
-24.6154 89.9145 2557.26
-25.2991 89.9145 2557.26
-25.9829 89.9145 2557.26
-26.6667 89.9145 2557.26
-27.3504 89.9145 2557.26
-28.0342 89.9145 2557.26
-28.7179 89.9145 2557.26
-29.1845 90.3004 2568.24
-29.8712 90.3004 2568.24
-30.5579 90.3004 2568.24
-31.2446 90.3004 2568.24
-32.1368 89.9145 2557.26
-32.618 90.3004 2568.24
-33.5043 89.9145 2557.26
-33.9914 90.3004 2568.24
-34.8718 89.9145 2557.26
-35.3648 90.3004 2568.24
-36.0515 90.3004 2568.24
-36.7382 90.3004 2568.24
-37.4249 90.3004 2568.24
-38.1116 90.3004 2568.24
-38.7983 90.3004 2568.24
-39.485 90.3004 2568.24
-40.1717 90.3004 2568.24
-40.8584 90.3004 2568.24
-41.5451 90.3004 2568.24
-42.2318 90.3004 2568.24
-42.9185 90.3004 2568.24
-43.6052 90.3004 2568.24
-51.1111 73.0556 2077.78
-44.9785 90.3004 2568.24
-45.6652 90.3004 2568.24
-41.9417 102.136 2904.85
-47.0386 90.3004 2568.24
-50.625 82.1875 2337.5
-48.412 90.3004 2568.24
-48.559 91.8777 2613.1
-49.7854 90.3004 2568.24
-50.4721 90.3004 2568.24
-51.1588 90.3004 2568.24
-51.8455 90.3004 2568.24
-52.4138 90.6897 2579.31
-53.1034 90.6897 2579.31
-53.7931 90.6897 2579.31
-63.3239 59.2676 1685.63
-57.5875 81.8677 2328.4
-58.125 82.1875 2337.5
-58.75 82.1875 2337.5
-59.375 82.1875 2337.5
-61.9081 74.3463 2114.49
-62.4113 74.6099 2121.99
-61.6092 80.613 2292.72
-60.0858 90.3004 2568.24
-60.7725 90.3004 2568.24
-61.4592 90.3004 2568.24
-62.1459 90.3004 2568.24
-62.8326 90.3004 2568.24
-63.5193 90.3004 2568.24
-64.206 90.3004 2568.24
-64.9573 89.9145 2557.26
-65.641 89.9145 2557.26
-66.3248 89.9145 2557.26
-67.0085 89.9145 2557.26
-67.7447 89.5319 2546.38
-68.4746 89.1525 2535.59
-69.1525 89.1525 2535.59
-69.4273 92.6872 2636.12
-73.4503 61.5205 1749.71
-74.3169 57.4863 1634.97
-74.7253 57.8022 1643.96
-72.5424 89.1525 2535.59
-72.6941 96.0731 2732.42
-73.6564 92.6872 2636.12
-74.1818 95.6364 2720
-75.2542 89.1525 2535.59
-75.9322 89.1525 2535.59
-77.4441 67.2204 1911.82
-77.2881 89.1525 2535.59
-77.9661 89.1525 2535.59
-78.6441 89.1525 2535.59
-79.322 89.1525 2535.59
-80 89.1525 2535.59
-80.678 89.1525 2535.59
-81.3559 89.1525 2535.59
-82.0339 89.1525 2535.59
-82.7119 89.1525 2535.59
-83.3898 89.1525 2535.59
-84.0678 89.1525 2535.59
-84.7458 89.1525 2535.59
-85.4237 89.1525 2535.59
-83.9669 57.9614 1648.48
-86.8966 90.6897 2579.31
-87.5862 90.6897 2579.31
-88.2759 90.6897 2579.31
-88.9655 90.6897 2579.31
-89.6552 90.6897 2579.31
-90.3448 90.6897 2579.31
-91.0345 90.6897 2579.31
-91.7241 90.6897 2579.31
-92.4138 90.6897 2579.31
-88.9676 62.0649 1765.19
-93.7339 90.3004 2568.24
-94.4206 90.3004 2568.24
-92.9889 77.6384 2208.12
-95.794 90.3004 2568.24
-96.4103 89.9145 2557.26
-97.094 89.9145 2557.26
-97.7778 89.9145 2557.26
-98.4615 89.9145 2557.26
-99.1453 89.9145 2557.26
-101.284 96.5138 2744.95
-102.43 98.3178 2796.26
-101.659 91.8777 2613.1
-103.704 97.4074 2770.37
-102.661 90.3004 2568.24
-97.492 67.6527 1924.12
-104.67 92.6872 2636.12
-105.374 92.6872 2636.12
-105.299 89.9145 2557.26
-105.983 89.9145 2557.26
-107.13 91.4783 2601.74
-107.706 91.0823 2590.48
-100.958 67.2204 1911.82
-108.718 89.9145 2557.26
-109.402 89.9145 2557.26
-109.957 89.5319 2546.38
-110.508 89.1525 2535.59
-111.453 89.9145 2557.26
-112.137 89.9145 2557.26
-111.736 86.9421 2472.73
-113.504 89.9145 2557.26
-114.188 89.9145 2557.26
-114.872 89.9145 2557.26
-114.239 86.5844 2462.55
-105.933 64.3425 1829.97
-106.422 64.3425 1829.97
-106.911 64.3425 1829.97
-123.495 102.136 2904.85
-108.235 65.1393 1852.63
-114.244 77.6384 2208.12
-120.17 89.5319 2546.38
-120.678 89.1525 2535.59
-121.356 89.1525 2535.59
-127.238 100.19 2849.52
-128.23 100.67 2863.16
-129.469 101.643 2890.82
-120 80.9231 2301.54
-120.772 81.2355 2310.42
-121.39 81.2355 2310.42
-122.008 81.2355 2310.42
-122.791 81.5504 2319.38
-123.411 81.5504 2319.38
-124.031 81.5504 2319.38
-128.403 88.4034 2514.29
-128.066 86.5844 2462.55
-129.748 88.4034 2514.29
-108.037 49.1589 1398.13
-108.411 49.1589 1398.13
-135 93.9286 2671.43
-135.714 93.9286 2671.43
-133.559 89.1525 2535.59
-134.237 89.1525 2535.59
-134.915 89.1525 2535.59
-135.593 89.1525 2535.59
-139.022 93.5111 2659.56
-129.594 77.6384 2208.12
-135.285 85.5285 2432.52
-122.08 64.3425 1829.97
-132.331 79.0977 2249.62
-139.661 89.1525 2535.59
-145.622 96.9585 2757.6
-140.759 88.7764 2524.89
-141.435 88.7764 2524.89
-142.11 88.7764 2524.89
-142.785 88.7764 2524.89
-154.455 104.158 2962.38
-143.866 88.4034 2514.29
-144.538 88.4034 2514.29
-145.21 88.4034 2514.29
-145.882 88.4034 2514.29
-143.36 84.16 2393.6
-144 84.16 2393.6
-138.339 75.9567 2160.29
-149.153 89.1525 2535.59
-149.831 89.1525 2535.59
-150.211 88.7764 2524.89
-150.886 88.7764 2524.89
-151.261 88.4034 2514.29
-151.933 88.4034 2514.29
-152.605 88.4034 2514.29
-152.365 87.3029 2482.99
-152.727 86.9421 2472.73
-153.388 86.9421 2472.73
-154.05 86.9421 2472.73
-155.966 88.4034 2514.29
-156.639 88.4034 2514.29
-162.883 94.7748 2695.5
-158.312 88.7764 2524.89
-158.987 88.7764 2524.89
-160 89.1525 2535.59
-160.678 89.1525 2535.59
-168.889 97.4074 2770.37
-164.912 92.2807 2624.56
-172.512 99.7156 2836.02
-163.038 88.7764 2524.89
-163.713 88.7764 2524.89
-165.106 89.5319 2546.38
-165.063 88.7764 2524.89
-165.738 88.7764 2524.89
-166.414 88.7764 2524.89
-167.089 88.7764 2524.89
-167.764 88.7764 2524.89
-168.439 88.7764 2524.89
-170.256 89.9145 2557.26
-169.789 88.7764 2524.89
-170.464 88.7764 2524.89
-171.139 88.7764 2524.89
-171.814 88.7764 2524.89
-172.489 88.7764 2524.89
-173.165 88.7764 2524.89
-173.445 88.4034 2514.29
-142.57 58.7709 1671.51
-174.393 88.0335 2503.77
-175.063 88.0335 2503.77
-175.732 88.0335 2503.77
-160 73.0556 2077.78
-145.352 59.2676 1685.63
-143.478 57.1739 1626.09
-176.79 86.5844 2462.55
-144.699 57.4863 1634.97
-176.911 85.5285 2432.52
-177.561 85.5285 2432.52
-178.211 85.5285 2432.52
-179.265 85.8776 2442.45
-181.157 86.9421 2472.73
-146.775 57.019 1621.68
-199.807 101.643 2890.82
-193.455 95.6364 2720
-158.994 66.1635 1881.76
-179.137 82.5098 2346.67
-186 87.6667 2493.33
-186.667 87.6667 2493.33
-187.782 88.0335 2503.77
-167.273 70.8418 2014.81
-168.108 71.0811 2021.62
-168.35 70.8418 2014.81
-168.591 70.604 2008.05
-168.829 70.3679 2001.34
-170.27 71.0811 2021.62
-170.505 70.8418 2014.81
-158.834 61.3411 1744.61
-159.3 61.3411 1744.61
-192.593 86.5844 2462.55
-193.719 86.9421 2472.73
-152.651 55.2231 1570.6
-195.519 87.3029 2482.99
-196.183 87.3029 2482.99
-196.846 87.3029 2482.99
-199.494 88.7764 2524.89
-200.169 88.7764 2524.89
-200.336 88.4034 2514.29
-202.034 89.1525 2535.59
-202.712 89.1525 2535.59
-203.39 89.1525 2535.59
-200 86.2295 2452.46
-200.163 85.8776 2442.45
-200.325 85.5285 2432.52
-200.486 85.1822 2422.67
-200.645 84.8387 2412.9
-201.29 84.8387 2412.9
-204.959 86.9421 2472.73
-205.62 86.9421 2472.73
-206.281 86.9421 2472.73
-206.942 86.9421 2472.73
-207.603 86.9421 2472.73
-208.797 87.3029 2482.99
-208.926 86.9421 2472.73
-209.587 86.9421 2472.73
-210.248 86.9421 2472.73
-218.341 91.8777 2613.1
-213.222 88.0335 2503.77
-213.891 88.0335 2503.77
-214.561 88.0335 2503.77
-215.23 88.0335 2503.77
-215.333 87.6667 2493.33
-216 87.6667 2493.33
-216.667 87.6667 2493.33
-217.333 87.6667 2493.33
-218 87.6667 2493.33
-218.667 87.6667 2493.33
-219.916 88.0335 2503.77
-221.176 88.4034 2514.29
-221.849 88.4034 2514.29
-221.925 88.0335 2503.77
-222.594 88.0335 2503.77
-223.264 88.0335 2503.77
-224.538 88.4034 2514.29
-224.603 88.0335 2503.77
-225.272 88.0335 2503.77
-225.941 88.0335 2503.77
-226.611 88.0335 2503.77
-227.28 88.0335 2503.77
-229.198 88.7764 2524.89
93.9806 102.913 2904.85
94.0488 103.415 2919.02
93.2683 103.415 2919.02
94.1872 104.433 2947.78
93.399 104.433 2947.78
94.3284 105.473 2977.11
93.5323 105.473 2977.11
87.7295 102.415 2890.82
91.0891 104.95 2962.38
90.297 104.95 2962.38
88.67 104.433 2947.78
87.8818 104.433 2947.78
80.7583 100.474 2836.02
78.4977 99.5305 2809.39
81.5385 101.923 2876.92
80.7692 101.923 2876.92
74.7907 98.6047 2783.26
76.9668 100.474 2836.02
75.4717 100 2822.64
74.717 100 2822.64
73.2394 99.5305 2809.39
71.0698 98.6047 2783.26
69.6296 98.1481 2770.37
64.2152 95.0673 2683.41
66.789 97.2477 2744.95
65.3881 96.8037 2732.42
60.8 94.2222 2659.56
58.8546 93.3921 2636.12
61.2613 95.4955 2695.5
56.8421 92.9825 2624.56
56.1404 92.9825 2624.56
57.8571 94.6429 2671.43
56.5333 94.2222 2659.56
52.2944 91.7749 2590.48
50.4721 90.9871 2568.24
50.3448 91.3793 2579.31
48 90.2128 2546.38
47.8632 90.5983 2557.26
46.6383 90.2128 2546.38
45.9574 90.2128 2546.38
45.2766 90.2128 2546.38
44.5957 90.2128 2546.38
44.4444 90.5983 2557.26
43.7607 90.5983 2557.26
43.0769 90.5983 2557.26
42.3932 90.5983 2557.26
41.7094 90.5983 2557.26
41.0256 90.5983 2557.26
40.3419 90.5983 2557.26
39.6581 90.5983 2557.26
38.9744 90.5983 2557.26
38.2906 90.5983 2557.26
37.6068 90.5983 2557.26
36.9231 90.5983 2557.26
36.2393 90.5983 2557.26
36.0515 90.9871 2568.24
35.3648 90.9871 2568.24
34.6781 90.9871 2568.24
33.9914 90.9871 2568.24
33.3047 90.9871 2568.24
32.618 90.9871 2568.24
31.9313 90.9871 2568.24
31.2446 90.9871 2568.24
31.0345 91.3793 2579.31
30.3448 91.3793 2579.31
29.6552 91.3793 2579.31
28.9655 91.3793 2579.31
28.2759 91.3793 2579.31
27.1245 90.9871 2568.24
26.4378 90.9871 2568.24
26.2069 91.3793 2579.31
25.5172 91.3793 2579.31
24.8276 91.3793 2579.31
24.1379 91.3793 2579.31
23.4483 91.3793 2579.31
22.7586 91.3793 2579.31
22.069 91.3793 2579.31
21.3793 91.3793 2579.31
20.6897 91.3793 2579.31
20 91.3793 2579.31
19.3103 91.3793 2579.31
18.1974 90.9871 2568.24
17.5107 90.9871 2568.24
16.824 90.9871 2568.24
16.1373 90.9871 2568.24
15.4506 90.9871 2568.24
14.7639 90.9871 2568.24
14.0773 90.9871 2568.24
13.7931 91.3793 2579.31
13.1034 91.3793 2579.31
12.4138 91.3793 2579.31
11.7241 91.3793 2579.31
11.0345 91.3793 2579.31
10.3448 91.3793 2579.31
9.65517 91.3793 2579.31
8.96552 91.3793 2579.31
8.65801 91.7749 2590.48
7.96537 91.7749 2590.48
7.27273 91.7749 2590.48
6.58009 91.7749 2590.48
5.88745 91.7749 2590.48
5.19481 91.7749 2590.48
4.50216 91.7749 2590.48
3.80952 91.7749 2590.48
3.11688 91.7749 2590.48
2.42424 91.7749 2590.48
-9.55224 79.1045 2232.84
-2.32365 87.9668 2482.99
-2.66667 88.3333 2493.33
-11.0861 79.4007 2241.2
-11.6854 79.4007 2241.2
-3.06383 90.2128 2546.38
-3.09013 90.9871 2568.24
-3.77682 90.9871 2568.24
-4.46352 90.9871 2568.24
-5.15021 90.9871 2568.24
-5.83691 90.9871 2568.24
-6.52361 90.9871 2568.24
-18.7726 76.5343 2160.29
-4.32432 95.4955 2695.5
-8.88889 90.5983 2557.26
-8.03493 92.5764 2613.1
-8.73362 92.5764 2613.1
-10.0433 91.7749 2590.48
-10.7359 91.7749 2590.48
-12.0172 90.9871 2568.24
-12.7039 90.9871 2568.24
-19.6109 82.4903 2328.4
-20.2335 82.4903 2328.4
-20.856 82.4903 2328.4
-21.7054 82.1705 2319.38
-16.4103 90.5983 2557.26
-17.094 90.5983 2557.26
-17.7778 90.5983 2557.26
-18.7234 90.2128 2546.38
-19.4043 90.2128 2546.38
-19.8291 90.5983 2557.26
-20.5128 90.5983 2557.26
-21.1966 90.5983 2557.26
-21.8803 90.5983 2557.26
-22.5641 90.5983 2557.26
-23.2479 90.5983 2557.26
-23.9316 90.5983 2557.26
-24.6154 90.5983 2557.26
-25.2991 90.5983 2557.26
-25.9829 90.5983 2557.26
-26.6667 90.5983 2557.26
-27.1245 90.9871 2568.24
-27.8112 90.9871 2568.24
-26.9027 93.8053 2647.79
-29.1845 90.9871 2568.24
-30.0855 90.5983 2557.26
-30.3448 91.3793 2579.31
-31.2446 90.9871 2568.24
-32.1368 90.5983 2557.26
-32.8205 90.5983 2557.26
-33.5043 90.5983 2557.26
-34.188 90.5983 2557.26
-34.8718 90.5983 2557.26
-35.5556 90.5983 2557.26
-36.0515 90.9871 2568.24
-36.7382 90.9871 2568.24
-37.4249 90.9871 2568.24
-38.1116 90.9871 2568.24
-38.7983 90.9871 2568.24
-38.2301 93.8053 2647.79
-40.3419 90.5983 2557.26
-40.8584 90.9871 2568.24
-41.5451 90.9871 2568.24
-42.2318 90.9871 2568.24
-42.9185 90.9871 2568.24
-43.6052 90.9871 2568.24
-44.2918 90.9871 2568.24
-44.9785 90.9871 2568.24
-45.6652 90.9871 2568.24
-46.3519 90.9871 2568.24
-47.0386 90.9871 2568.24
-50.7393 82.4903 2328.4
-48.412 90.9871 2568.24
-51.7647 83.1373 2346.67
-49.7854 90.9871 2568.24
-53.4363 81.8533 2310.42
-51.1588 90.9871 2568.24
-51.8455 90.9871 2568.24
-52.4138 91.3793 2579.31
-53.1034 91.3793 2579.31
-53.7931 91.3793 2579.31
-54.5923 90.9871 2568.24
-57.5 82.8125 2337.5
-58.125 82.8125 2337.5
-53.9713 101.435 2863.16
-59.4553 82.4903 2328.4
-58.0258 90.9871 2568.24
-58.7124 90.9871 2568.24
-59.3991 90.9871 2568.24
-60.0858 90.9871 2568.24
-60.7725 90.9871 2568.24
-61.4592 90.9871 2568.24
-62.1459 90.9871 2568.24
-62.8326 90.9871 2568.24
-63.5193 90.9871 2568.24
-64.206 90.9871 2568.24
-64.9573 90.5983 2557.26
-65.641 90.5983 2557.26
-66.2661 90.9871 2568.24
-67.0085 90.5983 2557.26
-70.5574 69.5082 1961.97
-71.1111 69.281 1955.56
-69.1525 89.8305 2535.59
-69.8305 89.8305 2535.59
-70.5085 89.8305 2535.59
-70.8772 92.9825 2624.56
-71.5419 93.3921 2636.12
-72.5424 89.8305 2535.59
-73.2203 89.8305 2535.59
-73.6283 93.8053 2647.79
-74.5763 89.8305 2535.59
-75.2542 89.8305 2535.59
-75.9322 89.8305 2535.59
-76.6102 89.8305 2535.59
-77.2881 89.8305 2535.59
-77.9661 89.8305 2535.59
-78.6441 89.8305 2535.59
-79.3043 92.1739 2601.74
-80 89.8305 2535.59
-80.678 89.8305 2535.59
-81.3559 89.8305 2535.59
-82.0339 89.8305 2535.59
-82.7119 89.8305 2535.59
-83.3898 89.8305 2535.59
-84.0678 89.8305 2535.59
-84.7458 89.8305 2535.59
-83.5262 58.4022 1648.48
-83.9669 58.4022 1648.48
-86.5574 86.8852 2452.46
-87.5862 91.3793 2579.31
-88.2759 91.3793 2579.31
-88.9655 91.3793 2579.31
-89.6552 91.3793 2579.31
-90.3448 91.3793 2579.31
-91.0345 91.3793 2579.31
-91.7241 91.3793 2579.31
-92.4138 91.3793 2579.31
-88.9941 62.7219 1770.41
-93.7339 90.9871 2568.24
-94.4206 90.9871 2568.24
-92.9412 77.9412 2200
-95.794 90.9871 2568.24
-96.4103 90.5983 2557.26
-97.094 90.5983 2557.26
-97.7778 90.5983 2557.26
-90.9367 53.6709 1514.94
-99.1453 90.5983 2557.26
-99.7447 90.2128 2546.38
-100.513 90.5983 2557.26
-101.197 90.5983 2557.26
-101.513 89.0756 2514.29
-102.185 89.0756 2514.29
-103.965 93.3921 2636.12
-104.67 93.3921 2636.12
-104.615 90.5983 2557.26
-105.299 90.5983 2557.26
-105.983 90.5983 2557.26
-108.108 95.4955 2695.5
-107.948 92.5764 2613.1
-108.034 90.5983 2557.26
-108.718 90.5983 2557.26
-109.402 90.5983 2557.26
-109.831 89.8305 2535.59
-110.769 90.5983 2557.26
-111.453 90.5983 2557.26
-112.137 90.5983 2557.26
-112.821 90.5983 2557.26
-113.504 90.5983 2557.26
-114.188 90.5983 2557.26
-113.58 87.2428 2462.55
-114.523 87.9668 2482.99
-114.754 86.8852 2452.46
-106.422 64.8318 1829.97
-117.131 89.4515 2524.89
-123.495 102.913 2904.85
-118.644 89.8305 2535.59
-119.489 90.2128 2546.38
-115.356 79.4007 2241.2
-120.678 89.8305 2535.59
-127.843 103.922 2933.33
-128.39 103.415 2919.02
-129.412 103.922 2933.33
-130.693 104.95 2962.38
-120 81.5385 2301.54
-120.772 81.8533 2310.42
-133.069 104.95 2962.38
-133.596 104.433 2947.78
-122.957 82.4903 2328.4
-123.243 81.8533 2310.42
-127.731 89.0756 2514.29
-113.882 62.3529 1760
-119.195 71.1409 2008.05
-133.575 95.9276 2707.69
-108.037 49.5327 1398.13
-121.081 71.6216 2021.62
-135 94.6429 2671.43
-135.964 95.0673 2683.41
-137.195 95.9276 2707.69
-134.237 89.8305 2535.59
-134.915 89.8305 2535.59
-135.593 89.8305 2535.59
-139.022 94.2222 2659.56
-139.733 94.2222 2659.56
-140.444 94.2222 2659.56
-122.08 64.8318 1829.97
-138.734 89.4515 2524.89
-139.409 89.4515 2524.89
-140.084 89.4515 2524.89
-140.759 89.4515 2524.89
-141.435 89.4515 2524.89
-142.11 89.4515 2524.89
-142.521 89.0756 2514.29
-154.826 105.473 2977.11
-143.866 89.0756 2514.29
-144.538 89.0756 2514.29
-145.21 89.0756 2514.29
-145.882 89.0756 2514.29
-146.555 89.0756 2514.29
-129.08 65.0307 1835.58
-148.186 89.4515 2524.89
-148.861 89.4515 2524.89
-149.536 89.4515 2524.89
-150.211 89.4515 2524.89
-150.886 89.4515 2524.89
-151.261 89.0756 2514.29
-151.933 89.0756 2514.29
-152.605 89.0756 2514.29
-153.277 89.0756 2514.29
-152.727 87.6033 2472.73
-153.388 87.6033 2472.73
-154.05 87.6033 2472.73
-155.966 89.0756 2514.29
-156.639 89.0756 2514.29
-157.311 89.0756 2514.29
-148.487 78.2288 2208.12
-159.322 89.8305 2535.59
-160 89.8305 2535.59
-160.678 89.8305 2535.59
-161.356 89.8305 2535.59
-170.047 98.6047 2783.26
-171.643 99.5305 2809.39
-163.038 89.4515 2524.89
-163.713 89.4515 2524.89
-164.388 89.4515 2524.89
-165.063 89.4515 2524.89
-165.738 89.4515 2524.89
-166.414 89.4515 2524.89
-167.089 89.4515 2524.89
-168.889 90.5983 2557.26
-169.573 90.5983 2557.26
-170.256 90.5983 2557.26
-169.789 89.4515 2524.89
-170.464 89.4515 2524.89
-171.139 89.4515 2524.89
-171.814 89.4515 2524.89
-172.489 89.4515 2524.89
-173.165 89.4515 2524.89
-173.445 89.0756 2514.29
-156.19 72.1088 2035.37
-176.41 90.5983 2557.26
-144.181 59.887 1690.4
-175.732 88.7029 2503.77
-145.085 59.887 1690.4
-145.537 59.887 1690.4
-177.333 88.3333 2493.33
-176.79 87.2428 2462.55
-178.667 88.3333 2493.33
-178.921 87.9668 2482.99
-179.174 87.6033 2472.73
-179.424 87.2428 2462.55
-179.672 86.8852 2452.46
-179.918 86.5306 2442.45
-146.775 57.4526 1621.68
-147.209 57.4526 1621.68
-193.455 96.3636 2720
-164.579 71.3805 2014.81
-179.137 83.1373 2346.67
-186 88.3333 2493.33
-155.516 62.5369 1765.19
-156.439 62.908 1775.67
-156.914 62.908 1775.67
-167.811 71.3805 2014.81
-168.35 71.3805 2014.81
-168.591 71.1409 2008.05
-170.648 72.3549 2042.32
-158.358 62.1701 1754.84
-169.007 70.1987 1981.46
-158.834 61.8076 1744.61
-191.475 86.8852 2452.46
-192.593 87.2428 2462.55
-193.251 87.2428 2462.55
-194.855 87.9668 2482.99
-195.519 87.9668 2482.99
-196.183 87.9668 2482.99
-196.846 87.9668 2482.99
-197.51 87.9668 2482.99
-198.174 87.9668 2482.99
-200.336 89.0756 2514.29
-201.008 89.0756 2514.29
-201.681 89.0756 2514.29
-202.869 89.4515 2524.89
-203.544 89.4515 2524.89
-204.219 89.4515 2524.89
-204.37 89.0756 2514.29
-200.486 85.83 2422.67
-200.645 85.4839 2412.9
-200.32 84.8 2393.6
-200.96 84.8 2393.6
-205.62 87.6033 2472.73
-206.281 87.6033 2472.73
-206.942 87.6033 2472.73
-208.133 87.9668 2482.99
-208.797 87.9668 2482.99
-208.926 87.6033 2472.73
-209.587 87.6033 2472.73
-210.248 87.6033 2472.73
-213.671 89.4515 2524.89
-214.346 89.4515 2524.89
-213.891 88.7029 2503.77
-215.126 89.0756 2514.29
-215.23 88.7029 2503.77
-215.333 88.3333 2493.33
-216 88.3333 2493.33
-216.667 88.3333 2493.33
-216.198 87.6033 2472.73
-219.16 89.0756 2514.29
-219.832 89.0756 2514.29
-220.504 89.0756 2514.29
-221.176 89.0756 2514.29
-221.849 89.0756 2514.29
-222.521 89.0756 2514.29
-222.594 88.7029 2503.77
-223.264 88.7029 2503.77
-224.538 89.0756 2514.29
-225.21 89.0756 2514.29
-246.923 101.923 2876.92
-225.941 88.7029 2503.77
-226 88.3333 2493.33
-226.667 88.3333 2493.33
-227.333 88.3333 2493.33
97.5124 106.269 2977.11
96.7164 106.269 2977.11
95.0495 105.743 2962.38
95.1244 106.269 2977.11
90.9268 104.195 2919.02
89.3204 103.689 2904.85
88.5437 103.689 2904.85
86.1538 102.692 2876.92
90.297 105.743 2962.38
88.67 105.222 2947.78
82.2857 101.714 2849.52
80.7583 101.232 2836.02
78.4977 100.282 2809.39
77.0093 99.8131 2796.26
75.5349 99.3488 2783.26
74.7907 99.3488 2783.26
74.0465 99.3488 2783.26
75.4717 100.755 2822.64
74.717 100.755 2822.64
68.3636 97.0909 2720
66.9683 96.6516 2707.69
69.6296 98.8889 2770.37
64.2152 95.7848 2683.41
63.4978 95.7848 2683.41
62.1429 95.3571 2671.43
60.8 94.9333 2659.56
58.8546 94.0969 2636.12
57.5439 93.6842 2624.56
56.8421 93.6842 2624.56
56.1404 93.6842 2624.56
57.8571 95.3571 2671.43
56.5333 94.9333 2659.56
51.1588 91.6738 2568.24
52.1739 92.8696 2601.74
48.6809 90.8936 2546.38
48 90.8936 2546.38
47.8632 91.2821 2557.26
47.1795 91.2821 2557.26
45.9574 90.8936 2546.38
45.2766 90.8936 2546.38
44.5957 90.8936 2546.38
44.4444 91.2821 2557.26
43.7607 91.2821 2557.26
43.0769 91.2821 2557.26
42.3932 91.2821 2557.26
41.7094 91.2821 2557.26
41.0256 91.2821 2557.26
40.3419 91.2821 2557.26
39.6581 91.2821 2557.26
38.9744 91.2821 2557.26
38.2906 91.2821 2557.26
37.6068 91.2821 2557.26
36.9231 91.2821 2557.26
36.2393 91.2821 2557.26
36.0515 91.6738 2568.24
35.3648 91.6738 2568.24
34.6781 91.6738 2568.24
33.9914 91.6738 2568.24
33.3047 91.6738 2568.24
32.618 91.6738 2568.24
31.9313 91.6738 2568.24
31.2446 91.6738 2568.24
30.5579 91.6738 2568.24
29.8712 91.6738 2568.24
29.1845 91.6738 2568.24
28.9655 92.069 2579.31
28.2759 92.069 2579.31
27.5862 92.069 2579.31
26.8966 92.069 2579.31
26.2069 92.069 2579.31
25.5172 92.069 2579.31
24.8276 92.069 2579.31
24.1379 92.069 2579.31
23.4483 92.069 2579.31
22.7586 92.069 2579.31
22.069 92.069 2579.31
21.3793 92.069 2579.31
20.6897 92.069 2579.31
20 92.069 2579.31
19.3103 92.069 2579.31
18.1974 91.6738 2568.24
17.5107 91.6738 2568.24
16.824 91.6738 2568.24
16.1373 91.6738 2568.24
15.4506 91.6738 2568.24
14.7639 91.6738 2568.24
14.4828 92.069 2579.31
13.7931 92.069 2579.31
13.1034 92.069 2579.31
12.4138 92.069 2579.31
11.7241 92.069 2579.31
11.0345 92.069 2579.31
10.3448 92.069 2579.31
9.65517 92.069 2579.31
9.35065 92.4675 2590.48
8.65801 92.4675 2590.48
7.96537 92.4675 2590.48
7.27273 92.4675 2590.48
6.58009 92.4675 2590.48
5.88745 92.4675 2590.48
5.19481 92.4675 2590.48
4.50216 92.4675 2590.48
3.80952 92.4675 2590.48
3.11688 92.4675 2590.48
-8.95522 79.7015 2232.84
-9.81413 79.4052 2224.54
-2.32365 88.6307 2482.99
-2.66667 89 2493.33
-3.01255 89.3724 2503.77
-3.36134 89.7479 2514.29
-2.06897 92.069 2579.31
-5.95041 88.2645 2472.73
-3.77682 91.6738 2568.24
-4.46352 91.6738 2568.24
-5.15021 91.6738 2568.24
-5.83691 91.6738 2568.24
-6.52361 91.6738 2568.24
-7.2103 91.6738 2568.24
-18.9091 77.6727 2176
-8.88889 91.2821 2557.26
-9.57265 91.2821 2557.26
-9.95708 91.6738 2568.24
-10.6438 91.6738 2568.24
-10.7359 92.4675 2590.48
-21.3333 79.1111 2216.3
-12.7039 91.6738 2568.24
-13.3906 91.6738 2568.24
-14.0773 91.6738 2568.24
-15.0427 91.2821 2557.26
-15.7265 91.2821 2557.26
-16.4103 91.2821 2557.26
-17.094 91.2821 2557.26
-17.7778 91.2821 2557.26
-20.4959 88.2645 2472.73
-19.1453 91.2821 2557.26
-19.8291 91.2821 2557.26
-20.5128 91.2821 2557.26
-21.1966 91.2821 2557.26
-21.8803 91.2821 2557.26
-22.5641 91.2821 2557.26
-23.2479 91.2821 2557.26
-23.9316 91.2821 2557.26
-24.6154 91.2821 2557.26
-25.2991 91.2821 2557.26
-25.9829 91.2821 2557.26
-26.6667 91.2821 2557.26
-27.1245 91.6738 2568.24
-27.8112 91.6738 2568.24
-28.4979 91.6738 2568.24
-29.1845 91.6738 2568.24
-30.0855 91.2821 2557.26
-30.3448 92.069 2579.31
-31.453 91.2821 2557.26
-32.1368 91.2821 2557.26
-32.8205 91.2821 2557.26
-33.5043 91.2821 2557.26
-34.188 91.2821 2557.26
-34.8718 91.2821 2557.26
-35.5556 91.2821 2557.26
-36.0515 91.6738 2568.24
-36.7382 91.6738 2568.24
-37.4249 91.6738 2568.24
-38.1116 91.6738 2568.24
-38.7983 91.6738 2568.24
-39.485 91.6738 2568.24
-40.3419 91.2821 2557.26
-41.0256 91.2821 2557.26
-41.5451 91.6738 2568.24
-42.2318 91.6738 2568.24
-42.9185 91.6738 2568.24
-43.6052 91.6738 2568.24
-44.2918 91.6738 2568.24
-44.9785 91.6738 2568.24
-45.6652 91.6738 2568.24
-46.3519 91.6738 2568.24
-47.0386 91.6738 2568.24
-49.6774 86.129 2412.9
-48.412 91.6738 2568.24
-49.0987 91.6738 2568.24
-49.7854 91.6738 2568.24
-50.4721 91.6738 2568.24
-51.1588 91.6738 2568.24
-52.7801 88.6307 2482.99
-52.4138 92.069 2579.31
-53.2189 91.6738 2568.24
-53.9056 91.6738 2568.24
-54.5923 91.6738 2568.24
-63.8202 60 1680.9
-55.9657 91.6738 2568.24
-56.6524 91.6738 2568.24
-57.3391 91.6738 2568.24
-58.0258 91.6738 2568.24
-58.7124 91.6738 2568.24
-59.3991 91.6738 2568.24
-60.0858 91.6738 2568.24
-60.7725 91.6738 2568.24
-61.4592 91.6738 2568.24
-62.1459 91.6738 2568.24
-62.8326 91.6738 2568.24
-63.5193 91.6738 2568.24
-64.206 91.6738 2568.24
-64.8276 92.069 2579.31
-68.5714 72.6531 2035.37
-66.2661 91.6738 2568.24
-69.7987 71.6779 2008.05
-70.5882 69.8039 1955.56
-71.1111 69.8039 1955.56
-69.1525 90.5085 2535.59
-69.8305 90.5085 2535.59
-70.5085 90.5085 2535.59
-70.8772 93.6842 2624.56
-71.8644 90.5085 2535.59
-72.5424 90.5085 2535.59
-73.2203 90.5085 2535.59
-73.6283 94.5133 2647.79
-74.5992 90.1266 2524.89
-75.2542 90.5085 2535.59
-75.9322 90.5085 2535.59
-76.6102 90.5085 2535.59
-77.2881 90.5085 2535.59
-77.9661 90.5085 2535.59
-78.6441 90.5085 2535.59
-79.322 90.5085 2535.59
-80 90.5085 2535.59
-80.678 90.5085 2535.59
-81.3559 90.5085 2535.59
-82.0339 90.5085 2535.59
-82.7119 90.5085 2535.59
-83.3898 90.5085 2535.59
-84.0678 90.5085 2535.59
-84.7458 90.5085 2535.59
-83.5262 58.843 1648.48
-83.9669 58.843 1648.48
-86.8966 92.069 2579.31
-87.5862 92.069 2579.31
-88.2759 92.069 2579.31
-88.9655 92.069 2579.31
-89.6552 92.069 2579.31
-90.3448 92.069 2579.31
-91.0345 92.069 2579.31
-91.7241 92.069 2579.31
-92.4138 92.069 2579.31
-88.9941 63.1953 1770.41
-93.7339 91.6738 2568.24
-94.4206 91.6738 2568.24
-92.9889 78.8192 2208.12
-95.794 91.6738 2568.24
-96.4103 91.2821 2557.26
-96 85.44 2393.6
-97.7778 91.2821 2557.26
-90.9091 53.9394 1511.11
-99.1453 91.2821 2557.26
-99.7447 90.8936 2546.38
-100.601 91.6738 2568.24
-100.928 90.1266 2524.89
-101.513 89.7479 2514.29
-102.278 90.1266 2524.89
-102.954 90.1266 2524.89
-103.629 90.1266 2524.89
-106.301 97.5342 2732.42
-104.667 89 2493.33
-105.021 87.9012 2462.55
-105.679 87.9012 2462.55
-106.23 87.541 2452.46
-108.034 91.2821 2557.26
-108.718 91.2821 2557.26
-109.402 91.2821 2557.26
-109.212 88.6307 2482.99
-111.579 93.6842 2624.56
-110.413 88.2645 2472.73
-112.137 91.2821 2557.26
-112.821 91.2821 2557.26
-113.504 91.2821 2557.26
-111.621 84.4269 2365.22
-111.875 83.4375 2337.5
-112.5 83.4375 2337.5
-113.125 83.4375 2337.5
-106.422 65.3211 1829.97
-117.131 90.1266 2524.89
-107.485 65.5215 1835.58
-118.644 90.5085 2535.59
-119.658 91.2821 2557.26
-115.356 80 2241.2
-127.059 104.706 2933.33
-127.843 104.706 2933.33
-128.627 104.706 2933.33
-129.655 105.222 2947.78
-130.693 105.743 2962.38
-120 82.1538 2301.54
-120.772 82.471 2310.42
-133.069 105.743 2962.38
-133.596 105.222 2947.78
-125.809 88.6307 2482.99
-127.059 89.7479 2514.29
-127.932 90.1266 2524.89
-128.608 90.1266 2524.89
-129.283 90.1266 2524.89
-107.728 50.0234 1401.41
-120.541 72.1622 2021.62
-134.286 95.3571 2671.43
-135.247 95.7848 2683.41
-136.216 96.2162 2695.5
-136.937 96.2162 2695.5
-134.237 90.5085 2535.59
-134.915 90.5085 2535.59
-138.311 94.9333 2659.56
-139.022 94.9333 2659.56
-137.931 92.069 2579.31
-137.384 90.1266 2524.89
-138.059 90.1266 2524.89
-138.734 90.1266 2524.89
-143.71 96.6516 2707.69
-140.084 90.1266 2524.89
-140.759 90.1266 2524.89
-141.435 90.1266 2524.89
-142.11 90.1266 2524.89
-142.521 89.7479 2514.29
-154.826 106.269 2977.11
-143.866 89.7479 2514.29
-144.538 89.7479 2514.29
-145.21 89.7479 2514.29
-145.882 89.7479 2514.29
-146.555 89.7479 2514.29
-147.227 89.7479 2514.29
-148.186 90.1266 2524.89
-148.861 90.1266 2524.89
-149.536 90.1266 2524.89
-150.211 90.1266 2524.89
-150.886 90.1266 2524.89
-151.561 90.1266 2524.89
-151.933 89.7479 2514.29
-152.605 89.7479 2514.29
-153.277 89.7479 2514.29
-153.029 88.6307 2482.99
-153.388 88.2645 2472.73
-155.294 89.7479 2514.29
-155.966 89.7479 2514.29
-156.639 89.7479 2514.29
-157.311 89.7479 2514.29
-147.985 78.2418 2191.94
-158.987 90.1266 2524.89
-160 90.5085 2535.59
-160.678 90.5085 2535.59
-161.356 90.5085 2535.59
-162.034 90.5085 2535.59
-162.363 90.1266 2524.89
-174.615 102.692 2876.92
-163.713 90.1266 2524.89
-164.388 90.1266 2524.89
-165.063 90.1266 2524.89
-165.738 90.1266 2524.89
-166.414 90.1266 2524.89
-167.089 90.1266 2524.89
-167.764 90.1266 2524.89
-168.439 90.1266 2524.89
-169.114 90.1266 2524.89
-169.789 90.1266 2524.89
-170.464 90.1266 2524.89
-171.139 90.1266 2524.89
-171.814 90.1266 2524.89
-172.489 90.1266 2524.89
-173.165 90.1266 2524.89
-173.84 90.1266 2524.89
-143.099 60.169 1685.63
-143.729 60.339 1690.4
-144.181 60.339 1690.4
-175.732 89.3724 2503.77
-165.333 79.1111 2216.3
-165.609 78.8192 2208.12
-177.333 89 2493.33
-178.41 89.3724 2503.77
-181.631 91.6738 2568.24
-181.88 91.2821 2557.26
-182.128 90.8936 2546.38
-182.373 90.5085 2535.59
-182.616 90.1266 2524.89
-197.692 102.692 2876.92
-146.957 58.0435 1626.09
-147.209 57.8862 1621.68
-193.973 97.5342 2732.42
-164.579 71.9192 2014.81
-184.896 88.6307 2482.99
-155.044 63.0088 1765.19
-166.195 71.9192 2014.81
-156.439 63.3828 1775.67
-166.98 71.6779 2008.05
-189.121 89.3724 2503.77
-168.054 71.6779 2008.05
-168.591 71.6779 2008.05
-168.829 71.4381 2001.34
-171.195 72.901 2042.32
-169.007 70.7285 1981.46
-190.82 87.541 2452.46
-191.475 87.541 2452.46
-192.593 87.9012 2462.55
-193.251 87.9012 2462.55
-194.38 88.2645 2472.73
-141.187 46.9451 1315.16
-196.183 88.6307 2482.99
-196.846 88.6307 2482.99
-197.51 88.6307 2482.99
-198.174 88.6307 2482.99
-203.983 92.4675 2590.48
-204.675 92.4675 2590.48
-202.194 90.1266 2524.89
-203.39 90.5085 2535.59
-204.068 90.5085 2535.59
-205.812 91.2821 2557.26
-200.816 87.1837 2442.45
-201.469 87.1837 2442.45
-206.78 90.5085 2535.59
-201.29 86.129 2412.9
-205.477 88.6307 2482.99
-206.141 88.6307 2482.99
-206.281 88.2645 2472.73
-206.942 88.2645 2472.73
-207.603 88.2645 2472.73
-208.797 88.6307 2482.99
-208.926 88.2645 2472.73
-209.587 88.2645 2472.73
-204.585 84.4269 2365.22
-213.671 90.1266 2524.89
-214.346 90.1266 2524.89
-215.021 90.1266 2524.89
-215.126 89.7479 2514.29
-215.23 89.3724 2503.77
-215.333 89 2493.33
-217.722 90.1266 2524.89
-216.1 88.6307 2482.99
-218.487 89.7479 2514.29
-219.16 89.7479 2514.29
-220.422 90.1266 2524.89
-221.097 90.1266 2524.89
-221.176 89.7479 2514.29
-221.255 89.3724 2503.77
-222.521 89.7479 2514.29
-223.193 89.7479 2514.29
-223.866 89.7479 2514.29
-225.763 90.5085 2535.59
-246.154 102.692 2876.92
-246.923 102.692 2876.92
-224.73 88.6307 2482.99
-225.394 88.6307 2482.99
-225.455 88.2645 2472.73
-227.333 89 2493.33
98.3085 107.065 2977.11
97.5124 107.065 2977.11
96.7164 107.065 2977.11
95.0495 106.535 2962.38
95.1244 107.065 2977.11
94.3284 107.065 2977.11
93.5323 107.065 2977.11
89.3659 104.976 2919.02
86.9565 103.961 2890.82
85.3846 103.462 2876.92
84.6154 103.462 2876.92
82.2857 102.476 2849.52
80.7583 101.991 2836.02
80 101.991 2836.02
77.7465 101.033 2809.39
76.9953 101.033 2809.39
74.7907 100.093 2783.26
74.0465 100.093 2783.26
75.4717 101.509 2822.64
73.9906 101.033 2809.39
73.2394 101.033 2809.39
67.6364 97.8182 2720
69.6296 99.6296 2770.37
64.2152 96.5022 2683.41
63.4978 96.5022 2683.41
62.1429 96.0714 2671.43
60.8 95.6444 2659.56
60.0889 95.6444 2659.56
57.5439 94.386 2624.56
56.8421 94.386 2624.56
56.1404 94.386 2624.56
57.2444 95.6444 2659.56
56.5333 95.6444 2659.56
55.2212 95.2212 2647.79
50.4721 92.3605 2568.24
48.6809 91.5745 2546.38
48 91.5745 2546.38
47.8632 91.9658 2557.26
47.1795 91.9658 2557.26
44.8945 90.8017 2524.89
43.6975 90.4202 2514.29
44.5957 91.5745 2546.38
43.3898 91.1864 2535.59
43.7607 91.9658 2557.26
43.0769 91.9658 2557.26
42.3932 91.9658 2557.26
41.7094 91.9658 2557.26
41.0256 91.9658 2557.26
40.3419 91.9658 2557.26
39.6581 91.9658 2557.26
38.9744 91.9658 2557.26
38.2906 91.9658 2557.26
37.6068 91.9658 2557.26
36.9231 91.9658 2557.26
36.2393 91.9658 2557.26
35.5556 91.9658 2557.26
35.3648 92.3605 2568.24
34.6781 92.3605 2568.24
33.9914 92.3605 2568.24
33.3047 92.3605 2568.24
32.618 92.3605 2568.24
31.9313 92.3605 2568.24
31.2446 92.3605 2568.24
30.5579 92.3605 2568.24
29.8712 92.3605 2568.24
29.1845 92.3605 2568.24
28.9655 92.7586 2579.31
28.2759 92.7586 2579.31
27.1245 92.3605 2568.24
26.4378 92.3605 2568.24
25.7511 92.3605 2568.24
25.5172 92.7586 2579.31
24.8276 92.7586 2579.31
24.1379 92.7586 2579.31
23.4483 92.7586 2579.31
22.7586 92.7586 2579.31
22.069 92.7586 2579.31
21.3793 92.7586 2579.31
20.6897 92.7586 2579.31
20 92.7586 2579.31
19.3103 92.7586 2579.31
18.6207 92.7586 2579.31
17.931 92.7586 2579.31
17.2414 92.7586 2579.31
16.1373 92.3605 2568.24
15.8621 92.7586 2579.31
15.1724 92.7586 2579.31
14.4828 92.7586 2579.31
13.7931 92.7586 2579.31
13.1034 92.7586 2579.31
12.4138 92.7586 2579.31
11.7241 92.7586 2579.31
11.4286 93.1602 2590.48
10.7359 93.1602 2590.48
10.0433 93.1602 2590.48
9.35065 93.1602 2590.48
8.65801 93.1602 2590.48
7.96537 93.1602 2590.48
7.27273 93.1602 2590.48
6.58009 93.1602 2590.48
5.88745 93.1602 2590.48
5.19481 93.1602 2590.48
4.50216 93.1602 2590.48
3.80952 93.1602 2590.48
-7.27273 81.5152 2266.67
-9.21933 80 2224.54
-9.81413 80 2224.54
-1.34454 90.4202 2514.29
-1.68776 90.8017 2524.89
-2.36287 90.8017 2524.89
-1.71674 92.3605 2568.24
-2.40343 92.3605 2568.24
-2.75862 92.7586 2579.31
-8.6747 86.4257 2403.21
-4.46352 92.3605 2568.24
-5.15021 92.3605 2568.24
-5.83691 92.3605 2568.24
-6.52361 92.3605 2568.24
-7.2103 92.3605 2568.24
-18.9091 78.2545 2176
-19.4909 78.2545 2176
-9.57265 91.9658 2557.26
-9.95708 92.3605 2568.24
-10.0433 93.1602 2590.48
-10.7359 93.1602 2590.48
-21.3333 79.7037 2216.3
-17.28 86.08 2393.6
-22.0896 80.2985 2232.84
-18.0645 86.7742 2412.9
-15.0427 91.9658 2557.26
-15.7265 91.9658 2557.26
-16.4103 91.9658 2557.26
-17.094 91.9658 2557.26
-17.7778 91.9658 2557.26
-21.7004 87.1255 2422.67
-19.1453 91.9658 2557.26
-19.8291 91.9658 2557.26
-20.5128 91.9658 2557.26
-21.1966 91.9658 2557.26
-21.8803 91.9658 2557.26
-26.6667 85.3968 2374.6
-23.2479 91.9658 2557.26
-23.9316 91.9658 2557.26
-24.6154 91.9658 2557.26
-25.2991 91.9658 2557.26
-25.9829 91.9658 2557.26
-26.6667 91.9658 2557.26
-27.1245 92.3605 2568.24
-27.8112 92.3605 2568.24
-28.4979 92.3605 2568.24
-29.1845 92.3605 2568.24
-30.0855 91.9658 2557.26
-30.7692 91.9658 2557.26
-31.453 91.9658 2557.26
-32.1368 91.9658 2557.26
-32.8205 91.9658 2557.26
-33.5043 91.9658 2557.26
-34.188 91.9658 2557.26
-34.8718 91.9658 2557.26
-35.5556 91.9658 2557.26
-36.2393 91.9658 2557.26
-36.7382 92.3605 2568.24
-37.6068 91.9658 2557.26
-38.1116 92.3605 2568.24
-38.7983 92.3605 2568.24
-39.485 92.3605 2568.24
-40.3419 91.9658 2557.26
-40.8584 92.3605 2568.24
-41.5451 92.3605 2568.24
-42.2318 92.3605 2568.24
-42.9185 92.3605 2568.24
-43.6052 92.3605 2568.24
-44.2918 92.3605 2568.24
-44.9785 92.3605 2568.24
-45.6652 92.3605 2568.24
-46.3519 92.3605 2568.24
-47.0386 92.3605 2568.24
-50.5098 84.3922 2346.67
-48.412 92.3605 2568.24
-49.0987 92.3605 2568.24
-49.7854 92.3605 2568.24
-50.4721 92.3605 2568.24
-51.1588 92.3605 2568.24
-51.8455 92.3605 2568.24
-52.5322 92.3605 2568.24
-53.2189 92.3605 2568.24
-53.9056 92.3605 2568.24
-54.5923 92.3605 2568.24
-55.279 92.3605 2568.24
-55.9657 92.3605 2568.24
-56.6524 92.3605 2568.24
-57.3391 92.3605 2568.24
-58.0258 92.3605 2568.24
-58.7124 92.3605 2568.24
-59.3991 92.3605 2568.24
-60.0858 92.3605 2568.24
-60.7725 92.3605 2568.24
-61.4592 92.3605 2568.24
-62.1459 92.3605 2568.24
-62.8326 92.3605 2568.24
-63.3766 93.1602 2590.48
-64.1379 92.7586 2579.31
-64.8276 92.7586 2579.31
-65.5172 92.7586 2579.31
-66.2661 92.3605 2568.24
-70.0328 70.5574 1961.97
-69.9301 75.2448 2092.31
-71.1111 70.3268 1955.56
-69.1525 91.1864 2535.59
-69.8305 91.1864 2535.59
-70.5085 91.1864 2535.59
-73.4177 68.1013 1893.67
-71.8644 91.1864 2535.59
-72.5424 91.1864 2535.59
-73.2203 91.1864 2535.59
-73.6 95.6444 2659.56
-74.5763 91.1864 2535.59
-76.478 67.673 1881.76
-75.9322 91.1864 2535.59
-76.6102 91.1864 2535.59
-77.2881 91.1864 2535.59
