-25.6881 -40 2744.95
-26.422 -40 2744.95
-27.156 -40 2744.95
-27.8899 -40 2744.95
-28.6239 -40 2744.95
-27.6777 -41.327 2836.02
-28.436 -41.327 2836.02
-30.8257 -40 2744.95
-31.5596 -40 2744.95
-32.2936 -40 2744.95
-33.0275 -40 2744.95
-33.7615 -40 2744.95
-34.4954 -40 2744.95
-35.2294 -40 2744.95
-35.9633 -40 2744.95
-36.6972 -40 2744.95
-37.4312 -40 2744.95
-38.1651 -40 2744.95
-38.8991 -40 2744.95
-39.633 -40 2744.95
-40.367 -40 2744.95
-41.1009 -40 2744.95
-41.8349 -40 2744.95
-42.5688 -40 2744.95
-43.3028 -40 2744.95
-44.0367 -40 2744.95
-44.7706 -40 2744.95
-45.5046 -40 2744.95
-46.2385 -40 2744.95
-46.9725 -40 2744.95
-47.7064 -40 2744.95
-48.4404 -40 2744.95
-49.1743 -40 2744.95
-49.7696 -40.1843 2757.6
-50.5069 -40.1843 2757.6
-51.2442 -40.1843 2757.6
-51.9816 -40.1843 2757.6
-52.7189 -40.1843 2757.6
-53.4562 -40.1843 2757.6
-54.3119 -40 2744.95
-54.9309 -40.1843 2757.6
-55.6682 -40.1843 2757.6
-56.4055 -40.1843 2757.6
-57.1429 -40.1843 2757.6
-57.8802 -40.1843 2757.6
-59.5595 -38.4141 2636.12
-59.3548 -40.1843 2757.6
-60.0922 -40.1843 2757.6
-60.8295 -40.1843 2757.6
-68.1657 -25.7988 1770.41
-62.2222 -40.3704 2770.37
-62.8837 -40.5581 2783.26
-63.7037 -40.3704 2770.37
-64.4444 -40.3704 2770.37
-65.2535 -40.1843 2757.6
-65.9908 -40.1843 2757.6
-66.7281 -40.1843 2757.6
-67.4654 -40.1843 2757.6
-68.2028 -40.1843 2757.6
-68.9401 -40.1843 2757.6
-69.6774 -40.1843 2757.6
-70.4147 -40.1843 2757.6
-71.1521 -40.1843 2757.6
-71.8894 -40.1843 2757.6
-72.5926 -40.3704 2770.37
-73.3333 -40.3704 2770.37
-74.0741 -40.3704 2770.37
-74.8148 -40.3704 2770.37
-75.5556 -40.3704 2770.37
-76.2963 -40.3704 2770.37
-77.037 -40.3704 2770.37
-77.7778 -40.3704 2770.37
-78.5185 -40.3704 2770.37
-79.2593 -40.3704 2770.37
-80 -40.3704 2770.37
-80.7407 -40.3704 2770.37
-81.4815 -40.3704 2770.37
-82.2222 -40.3704 2770.37
-82.963 -40.3704 2770.37
-83.7037 -40.3704 2770.37
-84.4444 -40.3704 2770.37
-85.1852 -40.3704 2770.37
-85.9259 -40.3704 2770.37
-86.6667 -40.3704 2770.37
-87.4074 -40.3704 2770.37
-88.1481 -40.3704 2770.37
-88.8889 -40.3704 2770.37
-89.6296 -40.3704 2770.37
-90.3704 -40.3704 2770.37
-91.1111 -40.3704 2770.37
-91.8519 -40.3704 2770.37
-92.5926 -40.3704 2770.37
-93.3333 -40.3704 2770.37
-94.0741 -40.3704 2770.37
-94.8148 -40.3704 2770.37
-95.5556 -40.3704 2770.37
-96.2963 -40.3704 2770.37
-97.037 -40.3704 2770.37
-97.7778 -40.3704 2770.37
-98.5185 -40.3704 2770.37
-99.2593 -40.3704 2770.37
-100 -40.3704 2770.37
-100.741 -40.3704 2770.37
-101.481 -40.3704 2770.37
-90.984 -19.9542 1369.34
-100.496 -36.0331 2472.73
-101.603 -36.7932 2524.89
-93.7143 -22.6494 1554.29
-103.051 -36.9492 2535.59
-104.67 -38.4141 2636.12
-105.374 -38.4141 2636.12
-106.079 -38.4141 2636.12
-106.784 -38.4141 2636.12
-94.0225 -19.5955 1344.72
-106.23 -35.7377 2452.46
-107.563 -36.6387 2514.29
-108.117 -36.4854 2503.77
-98.2011 -23.0688 1583.07
-98.7234 -23.1915 1591.49
-99.2 -23.2533 1595.73
-99.6791 -23.3155 1600
-112.275 -37.4249 2568.24
-112.961 -37.4249 2568.24
-113.648 -37.4249 2568.24
-114.335 -37.4249 2568.24
-115.021 -37.4249 2568.24
-115.708 -37.4249 2568.24
-116.395 -37.4249 2568.24
-117.082 -37.4249 2568.24
-117.768 -37.4249 2568.24
-118.455 -37.4249 2568.24
-119.142 -37.4249 2568.24
-119.828 -37.4249 2568.24
-120.515 -37.4249 2568.24
-121.202 -37.4249 2568.24
-121.888 -37.4249 2568.24
-122.575 -37.4249 2568.24
-122.532 -36.7932 2524.89
-123.948 -37.4249 2568.24
-124.635 -37.4249 2568.24
-124 -36.3333 2493.33
-124.667 -36.3333 2493.33
-125.145 -36.1826 2482.99
-125.432 -35.8848 2462.55
-126.091 -35.8848 2462.55
-126.749 -35.8848 2462.55
-127.407 -35.8848 2462.55
-127.097 -35.1613 2412.9
-130.815 -37.4249 2568.24
-131.502 -37.4249 2568.24
-132.189 -37.4249 2568.24
-132.876 -37.4249 2568.24
-133.562 -37.4249 2568.24
-134.249 -37.4249 2568.24
-134.936 -37.4249 2568.24
-135.622 -37.4249 2568.24
-136.552 -37.5862 2579.31
-137.241 -37.5862 2579.31
-137.931 -37.5862 2579.31
-138.621 -37.5862 2579.31
-139.31 -37.5862 2579.31
-140 -37.5862 2579.31
-142.026 -38.4141 2636.12
-142.456 -38.2456 2624.56
-142.882 -38.0786 2613.1
-143.581 -38.0786 2613.1
-144.279 -38.0786 2613.1
-144.696 -37.913 2601.74
-145.391 -37.913 2601.74
-146.087 -37.913 2601.74
-146.783 -37.913 2601.74
-147.478 -37.913 2601.74
-148.174 -37.913 2601.74
-148.87 -37.913 2601.74
-149.565 -37.913 2601.74
-150.261 -37.913 2601.74
-146.341 -35.4472 2432.52
-151.652 -37.913 2601.74
-152.348 -37.913 2601.74
-153.043 -37.913 2601.74
-153.42 -37.7489 2590.48
-154.113 -37.7489 2590.48
-154.805 -37.7489 2590.48
-155.498 -37.7489 2590.48
-156.19 -37.7489 2590.48
-156.883 -37.7489 2590.48
-157.576 -37.7489 2590.48
-158.268 -37.7489 2590.48
-158.961 -37.7489 2590.48
-159.654 -37.7489 2590.48
-160.346 -37.7489 2590.48
-161.039 -37.7489 2590.48
-161.732 -37.7489 2590.48
-162.424 -37.7489 2590.48
-163.117 -37.7489 2590.48
-163.81 -37.7489 2590.48
-164.138 -37.5862 2579.31
-165.565 -37.913 2601.74
-165.517 -37.5862 2579.31
-166.957 -37.913 2601.74
-167.652 -37.913 2601.74
-168.734 -38.0786 2613.1
-169.043 -37.913 2601.74
-170.131 -38.0786 2613.1
-170.83 -38.0786 2613.1
-171.13 -37.913 2601.74
-171.826 -37.913 2601.74
-172.926 -38.0786 2613.1
-173.624 -38.0786 2613.1
-174.323 -38.0786 2613.1
-175.022 -38.0786 2613.1
-175.721 -38.0786 2613.1
-176.419 -38.0786 2613.1
-177.118 -38.0786 2613.1
-177.817 -38.0786 2613.1
-178.515 -38.0786 2613.1
-179.214 -38.0786 2613.1
-179.913 -38.0786 2613.1
-180.611 -38.0786 2613.1
-181.31 -38.0786 2613.1
-182.009 -38.0786 2613.1
-182.707 -38.0786 2613.1
-183.406 -38.0786 2613.1
-184.105 -38.0786 2613.1
-184.803 -38.0786 2613.1
-185.502 -38.0786 2613.1
-186.201 -38.0786 2613.1
-186.9 -38.0786 2613.1
-187.598 -38.0786 2613.1
-188.297 -38.0786 2613.1
-188.996 -38.0786 2613.1
-189.694 -38.0786 2613.1
-190.393 -38.0786 2613.1
-191.092 -38.0786 2613.1
-191.79 -38.0786 2613.1
-192.489 -38.0786 2613.1
-193.188 -38.0786 2613.1
-193.886 -38.0786 2613.1
-194.585 -38.0786 2613.1
-195.284 -38.0786 2613.1
-195.983 -38.0786 2613.1
-196.681 -38.0786 2613.1
-197.38 -38.0786 2613.1
-198.596 -38.2456 2624.56
-199.298 -38.2456 2624.56
-200 -38.2456 2624.56
-200.702 -38.2456 2624.56
-201.404 -38.2456 2624.56
-202.105 -38.2456 2624.56
-202.807 -38.2456 2624.56
-203.509 -38.2456 2624.56
-204.211 -38.2456 2624.56
-204.912 -38.2456 2624.56
-205.614 -38.2456 2624.56
-206.316 -38.2456 2624.56
-207.018 -38.2456 2624.56
-207.719 -38.2456 2624.56
-208.421 -38.2456 2624.56
-209.123 -38.2456 2624.56
-209.825 -38.2456 2624.56
-210.526 -38.2456 2624.56
-211.228 -38.2456 2624.56
-211.93 -38.2456 2624.56
-212.632 -38.2456 2624.56
-213.333 -38.2456 2624.56
-214.035 -38.2456 2624.56
-214.737 -38.2456 2624.56
-215.439 -38.2456 2624.56
-216.14 -38.2456 2624.56
-216.842 -38.2456 2624.56
-217.544 -38.2456 2624.56
-218.246 -38.2456 2624.56
-218.947 -38.2456 2624.56
-219.649 -38.2456 2624.56
-205.984 -34.3307 2355.91
-197.372 -31.8248 2183.94
-197.956 -31.8248 2183.94
-190.476 -29.6599 2035.37
-191.02 -29.6599 2035.37
-223.86 -38.2456 2624.56
-225.198 -38.4141 2636.12
-225.263 -38.2456 2624.56
-225.965 -38.2456 2624.56
-226.667 -38.2456 2624.56
-227.368 -38.2456 2624.56
-228.07 -38.2456 2624.56
-228.772 -38.2456 2624.56
-162.92 -21.2165 1455.96
-247.843 -42.7451 2933.33
-248.627 -42.7451 2933.33
-229.61 -37.7489 2590.48
-230.303 -37.7489 2590.48
-230.345 -37.5862 2579.31
-231.034 -37.5862 2579.31
0.36036 -19.2793 1347.75
0.180587 -19.3228 1350.79
-0.180587 -19.3228 1350.79
-0.361991 -19.3665 1353.85
-0.544218 -19.4104 1356.92
-0.727273 -19.4545 1360
-0.911162 -19.4989 1363.1
-1.09589 -19.5434 1366.21
-1.28146 -19.5881 1369.34
-1.46789 -19.633 1372.48
-1.65517 -19.6782 1375.63
-1.84332 -19.7235 1378.8
-2.03233 -19.7691 1381.99
-2.22222 -19.8148 1385.19
-2.41299 -19.8608 1388.4
-2.60465 -19.907 1391.63
-2.7972 -19.9534 1394.87
-2.8103 -20.0468 1401.41
-3.18501 -20.0468 1401.41
42.7068 -32.1805 2249.62
62.4561 -37.5439 2624.56
6.41711 -22.8877 1600
5.9893 -22.8877 1600
9.88764 -24.0449 1680.9
14.2012 -25.3254 1770.41
13.7278 -25.3254 1770.41
13.2544 -25.3254 1770.41
3.62667 -22.8267 1595.73
3.2 -22.8267 1595.73
56.1404 -37.5439 2624.56
56.0352 -37.7093 2636.12
54.7368 -37.5439 2624.56
53.4498 -37.3799 2613.1
50.4721 -36.7382 2568.24
49.2308 -36.5812 2557.26
48.547 -36.5812 2557.26
47.8632 -36.5812 2557.26
47.1795 -36.5812 2557.26
46.4957 -36.5812 2557.26
45.812 -36.5812 2557.26
45.1282 -36.5812 2557.26
44.4444 -36.5812 2557.26
43.7607 -36.5812 2557.26
43.0769 -36.5812 2557.26
42.3932 -36.5812 2557.26
41.7094 -36.5812 2557.26
41.0256 -36.5812 2557.26
40.3419 -36.5812 2557.26
39.6581 -36.5812 2557.26
38.9744 -36.5812 2557.26
38.2906 -36.5812 2557.26
37.6068 -36.5812 2557.26
36.9231 -36.5812 2557.26
36.2393 -36.5812 2557.26
35.5556 -36.5812 2557.26
34.8718 -36.5812 2557.26
34.188 -36.5812 2557.26
33.9914 -36.7382 2568.24
33.3047 -36.7382 2568.24
32.618 -36.7382 2568.24
31.9313 -36.7382 2568.24
31.2446 -36.7382 2568.24
30.5579 -36.7382 2568.24
29.8712 -36.7382 2568.24
29.1845 -36.7382 2568.24
34.3891 -38.733 2707.69
33.6652 -38.733 2707.69
32.9412 -38.733 2707.69
32.2172 -38.733 2707.69
31.4932 -38.733 2707.69
30.7692 -38.733 2707.69
30.0452 -38.733 2707.69
29.3213 -38.733 2707.69
28.5973 -38.733 2707.69
27.8733 -38.733 2707.69
27.1493 -38.733 2707.69
26.4253 -38.733 2707.69
25.7014 -38.733 2707.69
24.9774 -38.733 2707.69
24.2534 -38.733 2707.69
23.5294 -38.733 2707.69
22.8054 -38.733 2707.69
22.0814 -38.733 2707.69
21.3575 -38.733 2707.69
21.0909 -38.9091 2720
20.3636 -38.9091 2720
19.6364 -38.9091 2720
18.9091 -38.9091 2720
18.1818 -38.9091 2720
17.4545 -38.9091 2720
16.7273 -38.9091 2720
16 -38.9091 2720
15.2727 -38.9091 2720
14.5455 -38.9091 2720
13.8182 -38.9091 2720
13.0909 -38.9091 2720
12.3636 -38.9091 2720
11.6364 -38.9091 2720
10.9091 -38.9091 2720
10.1818 -38.9091 2720
9.45455 -38.9091 2720
8.72727 -38.9091 2720
8 -38.9091 2720
7.27273 -38.9091 2720
6.54545 -38.9091 2720
5.81818 -38.9091 2720
5.09091 -38.9091 2720
4.36364 -38.9091 2720
3.63636 -38.9091 2720
2.90909 -38.9091 2720
2.18182 -38.9091 2720
1.45455 -38.9091 2720
0.727273 -38.9091 2720
-0 -38.9091 2720
-0.365297 -39.0868 2732.42
-1.09589 -39.0868 2732.42
-1.82648 -39.0868 2732.42
-2.55708 -39.0868 2732.42
-3.28767 -39.0868 2732.42
-4.01826 -39.0868 2732.42
-4.74886 -39.0868 2732.42
-5.47945 -39.0868 2732.42
-6.21005 -39.0868 2732.42
-6.94064 -39.0868 2732.42
-7.67123 -39.0868 2732.42
-8.40183 -39.0868 2732.42
-9.13242 -39.0868 2732.42
-9.86301 -39.0868 2732.42
-10.5936 -39.0868 2732.42
-11.3242 -39.0868 2732.42
-12.0548 -39.0868 2732.42
-12.7854 -39.0868 2732.42
-13.516 -39.0868 2732.42
-14.2466 -39.0868 2732.42
-14.9772 -39.0868 2732.42
-15.7078 -39.0868 2732.42
-16.4384 -39.0868 2732.42
-17.1689 -39.0868 2732.42
-17.8995 -39.0868 2732.42
-18.6301 -39.0868 2732.42
-19.3607 -39.0868 2732.42
-20.0913 -39.0868 2732.42
-20.8219 -39.0868 2732.42
-21.5525 -39.0868 2732.42
-22.2831 -39.0868 2732.42
-23.0137 -39.0868 2732.42
-23.7443 -39.0868 2732.42
-24.4749 -39.0868 2732.42
-24.9541 -39.2661 2744.95
-25.6881 -39.2661 2744.95
-26.422 -39.2661 2744.95
-27.156 -39.2661 2744.95
-27.8899 -39.2661 2744.95
-28.6239 -39.2661 2744.95
-29.3578 -39.2661 2744.95
-30.0917 -39.2661 2744.95
-30.8257 -39.2661 2744.95
-31.5596 -39.2661 2744.95
-32.2936 -39.2661 2744.95
-33.0275 -39.2661 2744.95
-33.7615 -39.2661 2744.95
-34.4954 -39.2661 2744.95
-35.2294 -39.2661 2744.95
-35.9633 -39.2661 2744.95
-36.6972 -39.2661 2744.95
-37.4312 -39.2661 2744.95
-38.1651 -39.2661 2744.95
-38.8991 -39.2661 2744.95
-39.633 -39.2661 2744.95
-40.367 -39.2661 2744.95
-41.1009 -39.2661 2744.95
-41.8349 -39.2661 2744.95
-42.5688 -39.2661 2744.95
-43.3028 -39.2661 2744.95
-44.0367 -39.2661 2744.95
-44.7706 -39.2661 2744.95
-45.5046 -39.2661 2744.95
-46.2385 -39.2661 2744.95
-46.9725 -39.2661 2744.95
-47.7064 -39.2661 2744.95
-48.4404 -39.2661 2744.95
-49.1743 -39.2661 2744.95
-49.9083 -39.2661 2744.95
-50.5069 -39.447 2757.6
-51.2442 -39.447 2757.6
-51.9816 -39.447 2757.6
-52.7189 -39.447 2757.6
-53.4562 -39.447 2757.6
-54.1935 -39.447 2757.6
-54.9309 -39.447 2757.6
-55.6682 -39.447 2757.6
-56.4055 -39.447 2757.6
-58.1498 -37.7093 2636.12
-58.8546 -37.7093 2636.12
-58.7156 -39.2661 2744.95
-59.3548 -39.447 2757.6
-67.1045 -25.5522 1786.27
-60.8295 -39.447 2757.6
-61.5668 -39.447 2757.6
-62.3041 -39.447 2757.6
-68.9157 -25.7831 1802.41
-63.7788 -39.447 2757.6
-64.4444 -39.6296 2770.37
-65.2535 -39.447 2757.6
-65.9908 -39.447 2757.6
-66.7281 -39.447 2757.6
-67.4654 -39.447 2757.6
-68.2028 -39.447 2757.6
-68.9401 -39.447 2757.6
-69.6774 -39.447 2757.6
-70.4147 -39.447 2757.6
-71.1521 -39.447 2757.6
-71.8894 -39.447 2757.6
-72.6267 -39.447 2757.6
-73.3333 -39.6296 2770.37
-74.0741 -39.6296 2770.37
-74.8148 -39.6296 2770.37
-75.5556 -39.6296 2770.37
-76.2963 -39.6296 2770.37
-77.037 -39.6296 2770.37
-77.7778 -39.6296 2770.37
-78.5185 -39.6296 2770.37
-79.2593 -39.6296 2770.37
-80 -39.6296 2770.37
-80.7407 -39.6296 2770.37
-81.4815 -39.6296 2770.37
-82.2222 -39.6296 2770.37
-82.963 -39.6296 2770.37
-83.7037 -39.6296 2770.37
-84.4444 -39.6296 2770.37
-85.1852 -39.6296 2770.37
-85.9259 -39.6296 2770.37
-86.6667 -39.6296 2770.37
-87.4074 -39.6296 2770.37
-88.1481 -39.6296 2770.37
-88.8889 -39.6296 2770.37
-89.6296 -39.6296 2770.37
-90.3704 -39.6296 2770.37
-91.1111 -39.6296 2770.37
-91.8519 -39.6296 2770.37
-92.5926 -39.6296 2770.37
-93.3333 -39.6296 2770.37
-94.0741 -39.6296 2770.37
-94.8148 -39.6296 2770.37
-95.5556 -39.6296 2770.37
-96.2963 -39.6296 2770.37
-97.037 -39.6296 2770.37
-97.7778 -39.6296 2770.37
-98.5185 -39.6296 2770.37
-99.2593 -39.6296 2770.37
-100 -39.6296 2770.37
-100.741 -39.6296 2770.37
-98.7097 -34.5161 2412.9
-99.8347 -35.3719 2472.73
-100.496 -35.3719 2472.73
-101.157 -35.3719 2472.73
-101.728 -35.2263 2462.55
-103.051 -36.2712 2535.59
-103.729 -36.2712 2535.59
-104.407 -36.2712 2535.59
-103.68 -34.24 2393.6
-105.763 -36.2712 2535.59
-104.861 -34.1036 2384.06
-106.23 -35.082 2452.46
-107.563 -35.9664 2514.29
-108.117 -35.8159 2503.77
-95.3229 -19.0646 1332.74
-95.6444 -19.0222 1329.78
-96 -19.0222 1329.78
-96.3556 -19.0222 1329.78
-112.275 -36.7382 2568.24
-112.961 -36.7382 2568.24
-113.648 -36.7382 2568.24
-114.335 -36.7382 2568.24
-115.021 -36.7382 2568.24
-115.708 -36.7382 2568.24
-116.395 -36.7382 2568.24
-117.082 -36.7382 2568.24
-117.768 -36.7382 2568.24
-118.291 -36.5812 2557.26
-118.974 -36.5812 2557.26
-119.658 -36.5812 2557.26
-120.515 -36.7382 2568.24
-121.202 -36.7382 2568.24
-121.888 -36.7382 2568.24
-122.575 -36.7382 2568.24
-123.262 -36.7382 2568.24
-123.948 -36.7382 2568.24
-124.635 -36.7382 2568.24
-125.322 -36.7382 2568.24
-124.667 -35.6667 2493.33
-126.695 -36.7382 2568.24
-126 -35.6667 2493.33
-126.091 -35.2263 2462.55
-126.749 -35.2263 2462.55
-127.407 -35.2263 2462.55
-130.129 -36.7382 2568.24
-130.815 -36.7382 2568.24
-131.502 -36.7382 2568.24
-132.189 -36.7382 2568.24
-132.876 -36.7382 2568.24
-133.562 -36.7382 2568.24
-134.249 -36.7382 2568.24
-134.936 -36.7382 2568.24
-135.622 -36.7382 2568.24
-136.309 -36.7382 2568.24
-137.241 -36.8966 2579.31
-137.931 -36.8966 2579.31
-138.621 -36.8966 2579.31
-139.31 -36.8966 2579.31
-139.742 -36.7382 2568.24
-141.754 -37.5439 2624.56
-142.183 -37.3799 2613.1
-142.609 -37.2174 2601.74
-143.304 -37.2174 2601.74
-144 -37.2174 2601.74
-144.696 -37.2174 2601.74
-145.391 -37.2174 2601.74
-146.087 -37.2174 2601.74
-146.783 -37.2174 2601.74
-147.478 -37.2174 2601.74
-148.174 -37.2174 2601.74
-148.87 -37.2174 2601.74
-149.565 -37.2174 2601.74
-145.959 -34.9388 2442.45
-150.649 -37.0563 2590.48
-151.342 -37.0563 2590.48
-152.035 -37.0563 2590.48
-152.727 -37.0563 2590.48
-153.42 -37.0563 2590.48
-154.113 -37.0563 2590.48
-154.805 -37.0563 2590.48
-155.498 -37.0563 2590.48
-156.19 -37.0563 2590.48
-156.883 -37.0563 2590.48
-157.576 -37.0563 2590.48
-158.268 -37.0563 2590.48
-158.621 -36.8966 2579.31
-159.654 -37.0563 2590.48
-160.346 -37.0563 2590.48
-161.039 -37.0563 2590.48
-161.732 -37.0563 2590.48
-162.424 -37.0563 2590.48
-163.117 -37.0563 2590.48
-163.448 -36.8966 2579.31
-163.777 -36.7382 2568.24
-164.464 -36.7382 2568.24
-165.517 -36.8966 2579.31
-166.957 -37.2174 2601.74
-167.652 -37.2174 2601.74
-168.348 -37.2174 2601.74
-169.043 -37.2174 2601.74
-169.739 -37.2174 2601.74
-170.435 -37.2174 2601.74
-171.13 -37.2174 2601.74
-171.826 -37.2174 2601.74
-172.522 -37.2174 2601.74
-173.624 -37.3799 2613.1
-174.323 -37.3799 2613.1
-175.022 -37.3799 2613.1
-175.721 -37.3799 2613.1
-176.419 -37.3799 2613.1
-177.118 -37.3799 2613.1
-177.817 -37.3799 2613.1
-178.515 -37.3799 2613.1
-179.214 -37.3799 2613.1
-179.913 -37.3799 2613.1
-180.611 -37.3799 2613.1
-181.31 -37.3799 2613.1
-182.009 -37.3799 2613.1
-182.707 -37.3799 2613.1
-183.406 -37.3799 2613.1
-184.105 -37.3799 2613.1
-184.803 -37.3799 2613.1
-185.502 -37.3799 2613.1
-186.201 -37.3799 2613.1
-186.9 -37.3799 2613.1
-187.598 -37.3799 2613.1
-188.297 -37.3799 2613.1
-188.996 -37.3799 2613.1
-189.694 -37.3799 2613.1
-190.393 -37.3799 2613.1
-191.092 -37.3799 2613.1
-191.79 -37.3799 2613.1
-192.489 -37.3799 2613.1
-193.188 -37.3799 2613.1
-193.886 -37.3799 2613.1
-194.585 -37.3799 2613.1
-195.284 -37.3799 2613.1
-195.983 -37.3799 2613.1
-196.681 -37.3799 2613.1
-197.38 -37.3799 2613.1
-198.079 -37.3799 2613.1
-198.777 -37.3799 2613.1
-199.476 -37.3799 2613.1
-200.175 -37.3799 2613.1
-200.873 -37.3799 2613.1
-201.572 -37.3799 2613.1
-202.271 -37.3799 2613.1
-203.509 -37.5439 2624.56
-204.211 -37.5439 2624.56
-204.912 -37.5439 2624.56
-205.614 -37.5439 2624.56
-206.316 -37.5439 2624.56
-207.018 -37.5439 2624.56
-207.719 -37.5439 2624.56
-208.421 -37.5439 2624.56
-209.123 -37.5439 2624.56
-209.825 -37.5439 2624.56
-210.526 -37.5439 2624.56
-211.228 -37.5439 2624.56
-211.93 -37.5439 2624.56
-212.632 -37.5439 2624.56
-213.333 -37.5439 2624.56
-214.035 -37.5439 2624.56
-214.737 -37.5439 2624.56
-215.439 -37.5439 2624.56
-216.14 -37.5439 2624.56
-216.842 -37.5439 2624.56
-217.544 -37.5439 2624.56
-218.246 -37.5439 2624.56
-218.947 -37.5439 2624.56
-219.649 -37.5439 2624.56
-220.351 -37.5439 2624.56
-221.053 -37.5439 2624.56
-221.754 -37.5439 2624.56
-222.456 -37.5439 2624.56
-223.158 -37.5439 2624.56
-223.86 -37.5439 2624.56
-224.561 -37.5439 2624.56
-225.263 -37.5439 2624.56
-225.965 -37.5439 2624.56
-226.667 -37.5439 2624.56
-227.368 -37.5439 2624.56
-228.07 -37.5439 2624.56
-228.772 -37.5439 2624.56
-162.92 -20.8273 1455.96
-174.066 -23.5165 1643.96
-174.505 -23.5165 1643.96
-229.61 -37.0563 2590.48
-230.303 -37.0563 2590.48
-230.996 -37.0563 2590.48
-231.034 -36.8966 2579.31
44.3206 -29.2683 2085.02
44.1958 -29.3706 2092.31
44.0702 -29.4737 2099.65
43.9437 -29.5775 2107.04
43.8163 -29.682 2114.49
43.6879 -29.7872 2121.99
43.5587 -29.8932 2129.54
43.4286 -30 2137.14
43.2975 -30.1075 2144.8
43.1655 -30.2158 2152.52
43.0325 -30.3249 2160.29
42.8986 -30.4348 2168.12
42.7636 -30.5455 2176
42.6277 -30.6569 2183.94
42.4908 -30.7692 2191.94
42.3529 -30.8824 2200
42.214 -30.9963 2208.12
42.0741 -31.1111 2216.3
41.9331 -31.2268 2224.54
41.791 -31.3433 2232.84
41.194 -31.3433 2232.84
40.597 -31.3433 2232.84
22.4204 -26.7516 1905.73
13.2945 -24.4898 1744.61
14.2012 -24.8521 1770.41
13.7278 -24.8521 1770.41
4.05333 -22.4 1595.73
3.62667 -22.4 1595.73
3.2 -22.4 1595.73
56.1404 -36.8421 2624.56
56.0352 -37.0044 2636.12
54.7368 -36.8421 2624.56
53.4498 -36.6812 2613.1
50.4721 -36.0515 2568.24
49.2308 -35.8974 2557.26
48.547 -35.8974 2557.26
47.8632 -35.8974 2557.26
47.1795 -35.8974 2557.26
46.4957 -35.8974 2557.26
45.812 -35.8974 2557.26
45.1282 -35.8974 2557.26
44.4444 -35.8974 2557.26
43.7607 -35.8974 2557.26
43.0769 -35.8974 2557.26
42.3932 -35.8974 2557.26
41.7094 -35.8974 2557.26
41.0256 -35.8974 2557.26
40.3419 -35.8974 2557.26
39.6581 -35.8974 2557.26
38.9744 -35.8974 2557.26
38.2906 -35.8974 2557.26
37.6068 -35.8974 2557.26
36.9231 -35.8974 2557.26
36.2393 -35.8974 2557.26
35.5556 -35.8974 2557.26
34.8718 -35.8974 2557.26
34.188 -35.8974 2557.26
33.5043 -35.8974 2557.26
33.3047 -36.0515 2568.24
32.618 -36.0515 2568.24
31.9313 -36.0515 2568.24
31.2446 -36.0515 2568.24
30.5579 -36.0515 2568.24
29.8712 -36.0515 2568.24
29.1845 -36.0515 2568.24
-15.6743 -21.374 1522.65
33.6652 -38.009 2707.69
32.9412 -38.009 2707.69
32.2172 -38.009 2707.69
31.4932 -38.009 2707.69
30.7692 -38.009 2707.69
30.0452 -38.009 2707.69
29.3213 -38.009 2707.69
28.5973 -38.009 2707.69
27.8733 -38.009 2707.69
27.1493 -38.009 2707.69
26.9091 -38.1818 2720
25.7014 -38.009 2707.69
24.9774 -38.009 2707.69
24.2534 -38.009 2707.69
23.5294 -38.009 2707.69
22.8054 -38.009 2707.69
22.5455 -38.1818 2720
21.3575 -38.009 2707.69
21.0909 -38.1818 2720
20.3636 -38.1818 2720
19.6364 -38.1818 2720
18.9091 -38.1818 2720
18.1818 -38.1818 2720
17.4545 -38.1818 2720
16.7273 -38.1818 2720
16 -38.1818 2720
15.2727 -38.1818 2720
14.5455 -38.1818 2720
13.8182 -38.1818 2720
13.0909 -38.1818 2720
12.3636 -38.1818 2720
11.6364 -38.1818 2720
10.9091 -38.1818 2720
10.1818 -38.1818 2720
9.45455 -38.1818 2720
8.72727 -38.1818 2720
8 -38.1818 2720
7.27273 -38.1818 2720
6.54545 -38.1818 2720
5.81818 -38.1818 2720
5.09091 -38.1818 2720
4.36364 -38.1818 2720
3.63636 -38.1818 2720
2.90909 -38.1818 2720
2.18182 -38.1818 2720
1.45455 -38.1818 2720
0.727273 -38.1818 2720
-0 -38.1818 2720
-0.365297 -38.3562 2732.42
-1.09589 -38.3562 2732.42
-1.82648 -38.3562 2732.42
-2.55708 -38.3562 2732.42
-3.28767 -38.3562 2732.42
-4.01826 -38.3562 2732.42
-4.74886 -38.3562 2732.42
-5.47945 -38.3562 2732.42
-6.21005 -38.3562 2732.42
-6.94064 -38.3562 2732.42
-7.67123 -38.3562 2732.42
-8.40183 -38.3562 2732.42
-9.13242 -38.3562 2732.42
-9.86301 -38.3562 2732.42
-10.5936 -38.3562 2732.42
-11.3242 -38.3562 2732.42
-12.0548 -38.3562 2732.42
-12.7854 -38.3562 2732.42
-13.516 -38.3562 2732.42
-14.2466 -38.3562 2732.42
-14.9772 -38.3562 2732.42
-15.7078 -38.3562 2732.42
-16.4384 -38.3562 2732.42
-17.1689 -38.3562 2732.42
-17.8995 -38.3562 2732.42
-18.6301 -38.3562 2732.42
-19.3607 -38.3562 2732.42
-20.0913 -38.3562 2732.42
-20.8219 -38.3562 2732.42
-21.5525 -38.3562 2732.42
-22.2831 -38.3562 2732.42
-23.0137 -38.3562 2732.42
-23.7443 -38.3562 2732.42
-24.4749 -38.3562 2732.42
-24.9541 -38.5321 2744.95
-25.6881 -38.5321 2744.95
-26.422 -38.5321 2744.95
-27.3973 -38.3562 2732.42
-27.8899 -38.5321 2744.95
-28.8584 -38.3562 2732.42
-29.3578 -38.5321 2744.95
-30.0917 -38.5321 2744.95
-30.8257 -38.5321 2744.95
-31.5596 -38.5321 2744.95
-32.2936 -38.5321 2744.95
-33.0275 -38.5321 2744.95
-33.7615 -38.5321 2744.95
-34.4954 -38.5321 2744.95
-35.2294 -38.5321 2744.95
-35.9633 -38.5321 2744.95
-36.6972 -38.5321 2744.95
-37.235 -38.7097 2757.6
-38.1651 -38.5321 2744.95
-38.8991 -38.5321 2744.95
-39.633 -38.5321 2744.95
-40.1843 -38.7097 2757.6
-41.1009 -38.5321 2744.95
-41.8349 -38.5321 2744.95
-42.5688 -38.5321 2744.95
-43.3028 -38.5321 2744.95
-44.0367 -38.5321 2744.95
-44.7706 -38.5321 2744.95
-45.5046 -38.5321 2744.95
-46.2385 -38.5321 2744.95
-46.9725 -38.5321 2744.95
-47.7064 -38.5321 2744.95
-48.4404 -38.5321 2744.95
-49.1743 -38.5321 2744.95
-49.9083 -38.5321 2744.95
-50.6422 -38.5321 2744.95
-51.3761 -38.5321 2744.95
-52.7354 -37.6682 2683.41
-52.7189 -38.7097 2757.6
-53.4562 -38.7097 2757.6
-54.1935 -38.7097 2757.6
-54.9309 -38.7097 2757.6
-55.6682 -38.7097 2757.6
-56.4055 -38.7097 2757.6
-57.2477 -38.5321 2744.95
-57.9817 -38.5321 2744.95
-58.7156 -38.5321 2744.95
-66.6269 -25.0746 1786.27
-67.1045 -25.0746 1786.27
-60.8295 -38.7097 2757.6
-61.3953 -39.0698 2783.26
-62.3041 -38.7097 2757.6
-63.0415 -38.7097 2757.6
-63.7788 -38.7097 2757.6
-64.5161 -38.7097 2757.6
-65.2535 -38.7097 2757.6
-65.9908 -38.7097 2757.6
-66.7281 -38.7097 2757.6
-67.4654 -38.7097 2757.6
-68.2028 -38.7097 2757.6
-68.9401 -38.7097 2757.6
-69.6774 -38.7097 2757.6
-70.4147 -38.7097 2757.6
-71.1521 -38.7097 2757.6
-71.8894 -38.7097 2757.6
-72.6267 -38.7097 2757.6
-73.3641 -38.7097 2757.6
-74.0741 -38.8889 2770.37
-74.8148 -38.8889 2770.37
-75.5556 -38.8889 2770.37
-76.2963 -38.8889 2770.37
-77.037 -38.8889 2770.37
-77.7778 -38.8889 2770.37
-78.5185 -38.8889 2770.37
-79.2593 -38.8889 2770.37
-80 -38.8889 2770.37
-80.7407 -38.8889 2770.37
-81.4815 -38.8889 2770.37
-82.2222 -38.8889 2770.37
-82.963 -38.8889 2770.37
-83.7037 -38.8889 2770.37
-84.4444 -38.8889 2770.37
-85.1852 -38.8889 2770.37
-85.9259 -38.8889 2770.37
-86.6667 -38.8889 2770.37
-87.4074 -38.8889 2770.37
-88.1481 -38.8889 2770.37
-88.8889 -38.8889 2770.37
-89.6296 -38.8889 2770.37
-90.3704 -38.8889 2770.37
-91.1111 -38.8889 2770.37
-91.8519 -38.8889 2770.37
-92.5926 -38.8889 2770.37
-93.3333 -38.8889 2770.37
-94.0741 -38.8889 2770.37
-94.8148 -38.8889 2770.37
-95.5556 -38.8889 2770.37
-96.2963 -38.8889 2770.37
-97.037 -38.8889 2770.37
-97.7778 -38.8889 2770.37
-98.5185 -38.8889 2770.37
-99.2593 -38.8889 2770.37
-100 -38.8889 2770.37
-100.741 -38.8889 2770.37
-98.7097 -33.871 2412.9
-99.8347 -34.7107 2472.73
-100.496 -34.7107 2472.73
-101.157 -34.7107 2472.73
-101.728 -34.5679 2462.55
-102.479 -34.7107 2472.73
-104.67 -37.0044 2636.12
-103.04 -33.6 2393.6
-106.311 -37.3333 2659.56
-105.763 -35.5932 2535.59
-106.667 -35.8974 2557.26
-106.23 -34.4262 2452.46
-107.563 -35.2941 2514.29
-108.117 -35.1464 2503.77
-108.667 -35 2493.33
-107.717 -33.0709 2355.91
-108.346 -33.0709 2355.91
-110.795 -35.1464 2503.77
-112.275 -36.0515 2568.24
-112.961 -36.0515 2568.24
-113.648 -36.0515 2568.24
-114.335 -36.0515 2568.24
-115.021 -36.0515 2568.24
-115.708 -36.0515 2568.24
-116.395 -36.0515 2568.24
-116.923 -35.8974 2557.26
-117.607 -35.8974 2557.26
-118.291 -35.8974 2557.26
-118.974 -35.8974 2557.26
-119.658 -35.8974 2557.26
-120.515 -36.0515 2568.24
-121.202 -36.0515 2568.24
-121.888 -36.0515 2568.24
-122.575 -36.0515 2568.24
-123.262 -36.0515 2568.24
-123.948 -36.0515 2568.24
-124.635 -36.0515 2568.24
-125.322 -36.0515 2568.24
-125.042 -35.2941 2514.29
-126.695 -36.0515 2568.24
-126.192 -35.1464 2503.77
-126.862 -35.1464 2503.77
-127.333 -35 2493.33
-127.407 -34.5679 2462.55
-130.129 -36.0515 2568.24
-130.815 -36.0515 2568.24
-131.502 -36.0515 2568.24
-132.189 -36.0515 2568.24
-132.876 -36.0515 2568.24
-133.562 -36.0515 2568.24
-134.249 -36.0515 2568.24
-134.936 -36.0515 2568.24
-135.622 -36.0515 2568.24
-136.309 -36.0515 2568.24
-137.241 -36.2069 2579.31
-137.931 -36.2069 2579.31
-138.621 -36.2069 2579.31
-138.553 -35.7447 2546.38
-141.322 -37.0044 2636.12
-141.754 -36.8421 2624.56
-141.913 -36.5217 2601.74
-142.609 -36.5217 2601.74
-143.03 -36.3636 2590.48
-143.723 -36.3636 2590.48
-144.416 -36.3636 2590.48
-145.108 -36.3636 2590.48
-145.801 -36.3636 2590.48
-146.783 -36.5217 2601.74
-147.478 -36.5217 2601.74
-148.174 -36.5217 2601.74
-144.653 -34.2857 2442.45
-149.565 -36.5217 2601.74
-149.957 -36.3636 2590.48
-150.649 -36.3636 2590.48
-151.342 -36.3636 2590.48
-152.035 -36.3636 2590.48
-152.727 -36.3636 2590.48
-153.42 -36.3636 2590.48
-154.113 -36.3636 2590.48
-154.805 -36.3636 2590.48
-155.498 -36.3636 2590.48
-156.19 -36.3636 2590.48
-156.883 -36.3636 2590.48
-157.576 -36.3636 2590.48
-158.268 -36.3636 2590.48
-158.621 -36.2069 2579.31
-159.654 -36.3636 2590.48
-160 -36.2069 2579.31
-161.039 -36.3636 2590.48
-161.732 -36.3636 2590.48
-162.424 -36.3636 2590.48
-162.759 -36.2069 2579.31
-163.81 -36.3636 2590.48
-163.777 -36.0515 2568.24
-164.464 -36.0515 2568.24
-165.517 -36.2069 2579.31
-166.957 -36.5217 2601.74
-167.652 -36.5217 2601.74
-168.348 -36.5217 2601.74
-169.043 -36.5217 2601.74
-169.739 -36.5217 2601.74
-170.435 -36.5217 2601.74
-171.13 -36.5217 2601.74
-171.826 -36.5217 2601.74
-172.522 -36.5217 2601.74
-173.624 -36.6812 2613.1
-174.323 -36.6812 2613.1
-175.022 -36.6812 2613.1
-175.721 -36.6812 2613.1
-176.419 -36.6812 2613.1
-177.118 -36.6812 2613.1
-177.817 -36.6812 2613.1
-178.515 -36.6812 2613.1
-179.214 -36.6812 2613.1
-179.913 -36.6812 2613.1
-180.611 -36.6812 2613.1
-181.31 -36.6812 2613.1
-182.009 -36.6812 2613.1
-182.707 -36.6812 2613.1
-183.406 -36.6812 2613.1
-184.105 -36.6812 2613.1
-184.803 -36.6812 2613.1
-185.502 -36.6812 2613.1
-186.201 -36.6812 2613.1
-186.9 -36.6812 2613.1
-187.598 -36.6812 2613.1
-188.297 -36.6812 2613.1
-188.996 -36.6812 2613.1
-189.694 -36.6812 2613.1
-190.393 -36.6812 2613.1
-191.092 -36.6812 2613.1
-191.79 -36.6812 2613.1
-192.489 -36.6812 2613.1
-193.188 -36.6812 2613.1
-193.886 -36.6812 2613.1
-194.585 -36.6812 2613.1
-195.284 -36.6812 2613.1
-195.983 -36.6812 2613.1
-196.681 -36.6812 2613.1
-197.38 -36.6812 2613.1
-198.079 -36.6812 2613.1
-198.777 -36.6812 2613.1
-199.476 -36.6812 2613.1
-200.175 -36.6812 2613.1
-200.873 -36.6812 2613.1
-201.572 -36.6812 2613.1
-202.271 -36.6812 2613.1
-202.969 -36.6812 2613.1
-203.668 -36.6812 2613.1
-204.367 -36.6812 2613.1
-205.614 -36.8421 2624.56
-205.764 -36.6812 2613.1
-207.018 -36.8421 2624.56
-207.719 -36.8421 2624.56
-208.421 -36.8421 2624.56
-209.123 -36.8421 2624.56
-209.825 -36.8421 2624.56
-210.526 -36.8421 2624.56
-211.228 -36.8421 2624.56
-211.93 -36.8421 2624.56
-212.632 -36.8421 2624.56
-213.333 -36.8421 2624.56
-214.035 -36.8421 2624.56
-214.737 -36.8421 2624.56
-215.439 -36.8421 2624.56
-216.14 -36.8421 2624.56
-216.842 -36.8421 2624.56
-217.544 -36.8421 2624.56
-218.246 -36.8421 2624.56
-218.947 -36.8421 2624.56
-219.649 -36.8421 2624.56
-220.351 -36.8421 2624.56
-221.053 -36.8421 2624.56
-221.754 -36.8421 2624.56
-222.456 -36.8421 2624.56
-223.158 -36.8421 2624.56
-223.86 -36.8421 2624.56
-224.561 -36.8421 2624.56
-225.263 -36.8421 2624.56
-225.965 -36.8421 2624.56
-226.667 -36.8421 2624.56
-202.628 -30.6569 2183.94
-203.212 -30.6569 2183.94
-157.443 -19.1781 1366.21
-170.398 -22.2812 1587.27
-174.066 -23.0769 1643.96
-174.247 -23.0137 1639.45
-229.61 -36.3636 2590.48
-230.303 -36.3636 2590.48
-230.996 -36.3636 2590.48
-231.688 -36.3636 2590.48
-1.06195 -18.2301 1323.89
-1.24169 -18.2705 1326.83
0.363636 -18.7273 1360
0.182232 -18.7699 1363.1
-0 -18.8128 1366.21
-0.183066 -18.8558 1369.34
-0.366972 -18.8991 1372.48
-0.551724 -18.9425 1375.63
-0.737327 -18.9862 1378.8
-0.923788 -19.03 1381.99
-1.11111 -19.0741 1385.19
-1.2993 -19.1183 1388.4
-1.48837 -19.1628 1391.63
-1.67832 -19.2075 1394.87
-1.86916 -19.2523 1398.13
-2.06089 -19.2974 1401.41
-2.25352 -19.3427 1404.69
-2.62911 -19.3427 1404.69
-2.64151 -19.434 1411.32
-3.01887 -19.434 1411.32
-3.39623 -19.434 1411.32
10.7865 -23.1461 1680.9
13.7609 -24.0233 1744.61
13.2945 -24.0233 1744.61
12.828 -24.0233 1744.61
4.48 -21.9733 1595.73
4.05333 -21.9733 1595.73
3.62667 -21.9733 1595.73
3.2 -21.9733 1595.73
56.1404 -36.1404 2624.56
57.8571 -36.7857 2671.43
55.9292 -36.4602 2647.79
53.4498 -35.9825 2613.1
50.4721 -35.3648 2568.24
49.2308 -35.2137 2557.26
48.547 -35.2137 2557.26
47.8632 -35.2137 2557.26
47.1795 -35.2137 2557.26
46.4957 -35.2137 2557.26
45.812 -35.2137 2557.26
45.1282 -35.2137 2557.26
44.4444 -35.2137 2557.26
43.7607 -35.2137 2557.26
43.0769 -35.2137 2557.26
42.3932 -35.2137 2557.26
41.7094 -35.2137 2557.26
41.0256 -35.2137 2557.26
40.3419 -35.2137 2557.26
39.6581 -35.2137 2557.26
38.9744 -35.2137 2557.26
38.2906 -35.2137 2557.26
37.6068 -35.2137 2557.26
36.9231 -35.2137 2557.26
36.2393 -35.2137 2557.26
35.5556 -35.2137 2557.26
34.8718 -35.2137 2557.26
34.188 -35.2137 2557.26
33.9914 -35.3648 2568.24
33.3047 -35.3648 2568.24
32.618 -35.3648 2568.24
31.9313 -35.3648 2568.24
31.2446 -35.3648 2568.24
30.5579 -35.3648 2568.24
29.8712 -35.3648 2568.24
29.1845 -35.3648 2568.24
28.4979 -35.3648 2568.24
33.6652 -37.2851 2707.69
32.9412 -37.2851 2707.69
32.2172 -37.2851 2707.69
31.4932 -37.2851 2707.69
30.7692 -37.2851 2707.69
30.0452 -37.2851 2707.69
29.3213 -37.2851 2707.69
28.5973 -37.2851 2707.69
27.8733 -37.2851 2707.69
27.1493 -37.2851 2707.69
26.9091 -37.4545 2720
25.7014 -37.2851 2707.69
25.4545 -37.4545 2720
24.7273 -37.4545 2720
24 -37.4545 2720
23.2727 -37.4545 2720
22.5455 -37.4545 2720
21.8182 -37.4545 2720
21.0909 -37.4545 2720
20.3636 -37.4545 2720
19.6364 -37.4545 2720
18.9091 -37.4545 2720
18.1818 -37.4545 2720
17.4545 -37.4545 2720
16.7273 -37.4545 2720
16 -37.4545 2720
15.2727 -37.4545 2720
14.5455 -37.4545 2720
13.8182 -37.4545 2720
13.0909 -37.4545 2720
12.3636 -37.4545 2720
11.6364 -37.4545 2720
10.9091 -37.4545 2720
10.1818 -37.4545 2720
9.45455 -37.4545 2720
8.72727 -37.4545 2720
8 -37.4545 2720
7.27273 -37.4545 2720
6.54545 -37.4545 2720
5.81818 -37.4545 2720
5.09091 -37.4545 2720
4.36364 -37.4545 2720
3.63636 -37.4545 2720
2.90909 -37.4545 2720
2.18182 -37.4545 2720
1.45455 -37.4545 2720
0.727273 -37.4545 2720
0.365297 -37.6256 2732.42
-0.365297 -37.6256 2732.42
-1.09589 -37.6256 2732.42
-1.82648 -37.6256 2732.42
-2.55708 -37.6256 2732.42
-3.28767 -37.6256 2732.42
-4.01826 -37.6256 2732.42
-4.74886 -37.6256 2732.42
-5.47945 -37.6256 2732.42
-6.21005 -37.6256 2732.42
-6.94064 -37.6256 2732.42
-7.67123 -37.6256 2732.42
-8.40183 -37.6256 2732.42
-9.13242 -37.6256 2732.42
-9.86301 -37.6256 2732.42
-10.5936 -37.6256 2732.42
-11.3242 -37.6256 2732.42
-12.0548 -37.6256 2732.42
-12.7854 -37.6256 2732.42
-13.516 -37.6256 2732.42
-14.2466 -37.6256 2732.42
-14.9772 -37.6256 2732.42
-15.7078 -37.6256 2732.42
-16.4384 -37.6256 2732.42
-17.1689 -37.6256 2732.42
-17.8995 -37.6256 2732.42
-18.6301 -37.6256 2732.42
-19.3607 -37.6256 2732.42
-20.0913 -37.6256 2732.42
-20.8219 -37.6256 2732.42
-21.5525 -37.6256 2732.42
-22.2831 -37.6256 2732.42
-23.0137 -37.6256 2732.42
-23.7443 -37.6256 2732.42
-24.4749 -37.6256 2732.42
-24.9541 -37.7982 2744.95
-25.6881 -37.7982 2744.95
-26.6667 -37.6256 2732.42
-27.3973 -37.6256 2732.42
-28.1279 -37.6256 2732.42
-28.8584 -37.6256 2732.42
-29.3578 -37.7982 2744.95
-30.0917 -37.7982 2744.95
-30.8257 -37.7982 2744.95
-31.5596 -37.7982 2744.95
-32.2936 -37.7982 2744.95
-33.0275 -37.7982 2744.95
-33.7615 -37.7982 2744.95
-34.4954 -37.7982 2744.95
-35.2294 -37.7982 2744.95
-35.9633 -37.7982 2744.95
-36.6972 -37.7982 2744.95
-37.235 -37.9724 2757.6
-37.9724 -37.9724 2757.6
-38.7097 -37.9724 2757.6
-39.447 -37.9724 2757.6
-40.1843 -37.9724 2757.6
-41.1009 -37.7982 2744.95
-41.8349 -37.7982 2744.95
-42.5688 -37.7982 2744.95
-43.3028 -37.7982 2744.95
-44.0367 -37.7982 2744.95
-44.7706 -37.7982 2744.95
-45.5046 -37.7982 2744.95
-46.2385 -37.7982 2744.95
-46.9725 -37.7982 2744.95
-47.7064 -37.7982 2744.95
-48.4404 -37.7982 2744.95
-49.1743 -37.7982 2744.95
-49.9083 -37.7982 2744.95
-50.6422 -37.7982 2744.95
-51.3761 -37.7982 2744.95
-51.9816 -37.9724 2757.6
-52.7189 -37.9724 2757.6
-53.4562 -37.9724 2757.6
-54.1935 -37.9724 2757.6
-54.9309 -37.9724 2757.6
-55.6682 -37.9724 2757.6
-56.4055 -37.9724 2757.6
-57.2477 -37.7982 2744.95
-57.9817 -37.7982 2744.95
-58.7156 -37.7982 2744.95
-59.3548 -37.9724 2757.6
-67.1429 -24.5238 1780.95
-60.8295 -37.9724 2757.6
-61.5668 -37.9724 2757.6
-62.3041 -37.9724 2757.6
-63.0415 -37.9724 2757.6
-63.7788 -37.9724 2757.6
-64.5161 -37.9724 2757.6
-65.2535 -37.9724 2757.6
-65.9908 -37.9724 2757.6
-66.7281 -37.9724 2757.6
-67.4654 -37.9724 2757.6
-68.2028 -37.9724 2757.6
-68.9401 -37.9724 2757.6
-69.6774 -37.9724 2757.6
-70.4147 -37.9724 2757.6
-71.1521 -37.9724 2757.6
-71.8894 -37.9724 2757.6
-72.6267 -37.9724 2757.6
-73.3641 -37.9724 2757.6
-74.0741 -38.1481 2770.37
-74.8148 -38.1481 2770.37
-75.5556 -38.1481 2770.37
-76.2963 -38.1481 2770.37
-77.037 -38.1481 2770.37
-77.7778 -38.1481 2770.37
-78.5185 -38.1481 2770.37
-79.2593 -38.1481 2770.37
-80 -38.1481 2770.37
-80.7407 -38.1481 2770.37
-81.4815 -38.1481 2770.37
-82.2222 -38.1481 2770.37
-82.963 -38.1481 2770.37
-83.7037 -38.1481 2770.37
-84.4444 -38.1481 2770.37
-85.1852 -38.1481 2770.37
-85.9259 -38.1481 2770.37
-86.6667 -38.1481 2770.37
-87.4074 -38.1481 2770.37
-88.1481 -38.1481 2770.37
-88.8889 -38.1481 2770.37
-89.6296 -38.1481 2770.37
-90.3704 -38.1481 2770.37
-91.1111 -38.1481 2770.37
-91.8519 -38.1481 2770.37
-92.5926 -38.1481 2770.37
-93.3333 -38.1481 2770.37
-94.0741 -38.1481 2770.37
-94.8148 -38.1481 2770.37
-95.5556 -38.1481 2770.37
-96.2963 -38.1481 2770.37
-97.037 -38.1481 2770.37
-97.7778 -38.1481 2770.37
-98.5185 -38.1481 2770.37
-99.2593 -38.1481 2770.37
-100 -38.1481 2770.37
-100.741 -38.1481 2770.37
-90.474 -18.6005 1350.79
-99.4332 -33.3603 2422.67
-100 -33.2258 2412.9
-101.695 -34.9153 2535.59
-101.728 -33.9095 2462.55
-103.965 -36.2996 2636.12
-104.67 -36.2996 2636.12
-103.04 -32.96 2393.6
-103.68 -32.96 2393.6
-104.32 -32.96 2393.6
-104.96 -32.96 2393.6
-105.6 -32.96 2393.6
-107.563 -34.6218 2514.29
-108.235 -34.6218 2514.29
-108.908 -34.6218 2514.29
-109.333 -34.3333 2493.33
-110 -34.3333 2493.33
-111.588 -35.3648 2568.24
-112.275 -35.3648 2568.24
-112.961 -35.3648 2568.24
-113.648 -35.3648 2568.24
-114.335 -35.3648 2568.24
-115.021 -35.3648 2568.24
-115.556 -35.2137 2557.26
-116.239 -35.2137 2557.26
-116.923 -35.2137 2557.26
-117.607 -35.2137 2557.26
-118.291 -35.2137 2557.26
-118.974 -35.2137 2557.26
-119.658 -35.2137 2557.26
-121.404 -36.1404 2624.56
-121.202 -35.3648 2568.24
-121.888 -35.3648 2568.24
-122.575 -35.3648 2568.24
-123.262 -35.3648 2568.24
-123.948 -35.3648 2568.24
-124.635 -35.3648 2568.24
-124.936 -35.0638 2546.38
-125.424 -34.9153 2535.59
-125.907 -34.7679 2524.89
-126.387 -34.6218 2514.29
-126.473 -34.1909 2482.99
-128.755 -35.3648 2568.24
-127.407 -33.9095 2462.55
-130.129 -35.3648 2568.24
-130.815 -35.3648 2568.24
-131.502 -35.3648 2568.24
-132.189 -35.3648 2568.24
-132.876 -35.3648 2568.24
-133.562 -35.3648 2568.24
-134.249 -35.3648 2568.24
-134.936 -35.3648 2568.24
-135.622 -35.3648 2568.24
-136.309 -35.3648 2568.24
-136.996 -35.3648 2568.24
-137.682 -35.3648 2568.24
-140.444 -36.6222 2659.56
-140.885 -36.4602 2647.79
-141.322 -36.2996 2636.12
-141.754 -36.1404 2624.56
-141.913 -35.8261 2601.74
-142.609 -35.8261 2601.74
-143.03 -35.671 2590.48
-143.723 -35.671 2590.48
-144.416 -35.671 2590.48
-145.108 -35.671 2590.48
-145.801 -35.671 2590.48
-146.494 -35.671 2590.48
-147.186 -35.671 2590.48
-147.879 -35.671 2590.48
-148.571 -35.671 2590.48
-149.264 -35.671 2590.48
-149.655 -35.5172 2579.31
-150.649 -35.671 2590.48
-151.342 -35.671 2590.48
-152.035 -35.671 2590.48
-152.727 -35.671 2590.48
-153.42 -35.671 2590.48
-154.113 -35.671 2590.48
-154.805 -35.671 2590.48
-155.498 -35.671 2590.48
-156.19 -35.671 2590.48
-156.883 -35.671 2590.48
-157.576 -35.671 2590.48
-158.268 -35.671 2590.48
-158.961 -35.671 2590.48
-159.31 -35.5172 2579.31
-160 -35.5172 2579.31
-160.69 -35.5172 2579.31
-161.379 -35.5172 2579.31
-162.424 -35.671 2590.48
-162.403 -35.3648 2568.24
-163.81 -35.671 2590.48
-163.777 -35.3648 2568.24
-164.464 -35.3648 2568.24
-164.786 -35.2137 2557.26
-166.957 -35.8261 2601.74
-167.652 -35.8261 2601.74
-168.348 -35.8261 2601.74
-169.043 -35.8261 2601.74
-169.739 -35.8261 2601.74
-170.435 -35.8261 2601.74
-171.13 -35.8261 2601.74
-171.826 -35.8261 2601.74
-172.522 -35.8261 2601.74
-173.217 -35.8261 2601.74
-174.323 -35.9825 2613.1
-175.022 -35.9825 2613.1
-175.721 -35.9825 2613.1
-176.419 -35.9825 2613.1
-177.118 -35.9825 2613.1
-177.817 -35.9825 2613.1
-178.515 -35.9825 2613.1
-179.214 -35.9825 2613.1
-179.913 -35.9825 2613.1
-180.611 -35.9825 2613.1
-181.31 -35.9825 2613.1
-182.009 -35.9825 2613.1
-182.707 -35.9825 2613.1
-183.406 -35.9825 2613.1
-184.105 -35.9825 2613.1
-184.803 -35.9825 2613.1
-185.502 -35.9825 2613.1
-186.201 -35.9825 2613.1
-186.9 -35.9825 2613.1
-187.598 -35.9825 2613.1
-188.297 -35.9825 2613.1
-188.996 -35.9825 2613.1
-189.694 -35.9825 2613.1
-190.393 -35.9825 2613.1
-191.092 -35.9825 2613.1
-191.79 -35.9825 2613.1
-192.489 -35.9825 2613.1
-193.188 -35.9825 2613.1
-193.886 -35.9825 2613.1
-194.585 -35.9825 2613.1
-195.284 -35.9825 2613.1
-195.983 -35.9825 2613.1
-196.681 -35.9825 2613.1
-197.38 -35.9825 2613.1
-198.079 -35.9825 2613.1
-198.777 -35.9825 2613.1
-199.476 -35.9825 2613.1
-200.175 -35.9825 2613.1
-200.873 -35.9825 2613.1
-201.572 -35.9825 2613.1
-202.271 -35.9825 2613.1
-202.969 -35.9825 2613.1
-203.668 -35.9825 2613.1
-204.367 -35.9825 2613.1
-205.066 -35.9825 2613.1
-205.764 -35.9825 2613.1
-206.463 -35.9825 2613.1
-207.162 -35.9825 2613.1
-207.86 -35.9825 2613.1
-209.123 -36.1404 2624.56
-209.825 -36.1404 2624.56
-210.526 -36.1404 2624.56
-211.228 -36.1404 2624.56
-211.93 -36.1404 2624.56
-212.632 -36.1404 2624.56
-213.333 -36.1404 2624.56
-214.035 -36.1404 2624.56
-214.737 -36.1404 2624.56
-215.439 -36.1404 2624.56
-216.14 -36.1404 2624.56
-216.842 -36.1404 2624.56
-217.544 -36.1404 2624.56
-218.246 -36.1404 2624.56
-218.947 -36.1404 2624.56
-219.649 -36.1404 2624.56
-220.351 -36.1404 2624.56
-221.053 -36.1404 2624.56
-221.754 -36.1404 2624.56
-222.456 -36.1404 2624.56
-223.158 -36.1404 2624.56
-223.86 -36.1404 2624.56
-224.561 -36.1404 2624.56
-225.263 -36.1404 2624.56
-225.965 -36.1404 2624.56
-226.667 -36.1404 2624.56
-227.368 -36.1404 2624.56
-228.07 -36.1404 2624.56
-158.519 -19.0741 1385.19
-173.626 -22.6374 1643.96
-174.066 -22.6374 1643.96
-164.314 -20.1961 1466.67
-229.61 -35.671 2590.48
-230.303 -35.671 2590.48
-230.996 -35.671 2590.48
-231.688 -35.671 2590.48
-1.40969 -17.7974 1318.06
-1.5894 -17.8366 1320.97
0.363636 -18.3636 1360
0.182232 -18.4055 1363.1
-0 -18.4475 1366.21
-0 -18.5321 1372.48
-0.183908 -18.5747 1375.63
-0.368664 -18.6175 1378.8
-0.554273 -18.6605 1381.99
-0.740741 -18.7037 1385.19
-0.928074 -18.7471 1388.4
-1.11628 -18.7907 1391.63
-1.30536 -18.8345 1394.87
-1.49533 -18.8785 1398.13
-1.68618 -18.9227 1401.41
-1.87793 -18.9671 1404.69
-2.07059 -19.0118 1408
-2.62911 -18.9671 1404.69
-2.64151 -19.0566 1411.32
-2.83688 -19.1017 1414.66
-4.98845 -18.6605 1381.99
22.9299 -25.7325 1905.73
13.7609 -23.5569 1744.61
13.5673 -23.6257 1749.71
12.828 -23.5569 1744.61
12.6316 -23.6257 1749.71
15.2266 -24.4109 1807.85
17.0898 -25.0155 1852.63
16.5944 -25.0155 1852.63
61.0909 -36.7273 2720
57.8571 -36.0714 2671.43
56.5333 -35.9111 2659.56
55.8222 -35.9111 2659.56
50.4721 -34.6781 2568.24
49.2308 -34.5299 2557.26
48.547 -34.5299 2557.26
47.8632 -34.5299 2557.26
47.1795 -34.5299 2557.26
46.4957 -34.5299 2557.26
45.812 -34.5299 2557.26
45.1282 -34.5299 2557.26
44.4444 -34.5299 2557.26
43.7607 -34.5299 2557.26
43.0769 -34.5299 2557.26
42.3932 -34.5299 2557.26
41.7094 -34.5299 2557.26
41.0256 -34.5299 2557.26
40.3419 -34.5299 2557.26
39.6581 -34.5299 2557.26
38.9744 -34.5299 2557.26
38.2906 -34.5299 2557.26
37.6068 -34.5299 2557.26
36.9231 -34.5299 2557.26
36.2393 -34.5299 2557.26
35.5556 -34.5299 2557.26
34.8718 -34.5299 2557.26
34.188 -34.5299 2557.26
33.9914 -34.6781 2568.24
33.3047 -34.6781 2568.24
32.618 -34.6781 2568.24
31.9313 -34.6781 2568.24
31.2446 -34.6781 2568.24
30.5579 -34.6781 2568.24
29.8712 -34.6781 2568.24
29.1845 -34.6781 2568.24
28.4979 -34.6781 2568.24
33.6652 -36.5611 2707.69
32.9412 -36.5611 2707.69
32.2172 -36.5611 2707.69
31.4932 -36.5611 2707.69
30.7692 -36.5611 2707.69
30.0452 -36.5611 2707.69
29.3213 -36.5611 2707.69
28.5973 -36.5611 2707.69
27.8733 -36.5611 2707.69
27.1493 -36.5611 2707.69
26.4253 -36.5611 2707.69
25.7014 -36.5611 2707.69
25.4545 -36.7273 2720
24.2534 -36.5611 2707.69
24 -36.7273 2720
22.8054 -36.5611 2707.69
22.5455 -36.7273 2720
21.8182 -36.7273 2720
21.0909 -36.7273 2720
20.3636 -36.7273 2720
19.6364 -36.7273 2720
18.9091 -36.7273 2720
18.1818 -36.7273 2720
17.4545 -36.7273 2720
16.7273 -36.7273 2720
16 -36.7273 2720
15.2727 -36.7273 2720
14.5455 -36.7273 2720
13.8182 -36.7273 2720
13.0909 -36.7273 2720
12.3636 -36.7273 2720
11.6364 -36.7273 2720
10.9091 -36.7273 2720
10.1818 -36.7273 2720
9.45455 -36.7273 2720
8.72727 -36.7273 2720
8 -36.7273 2720
7.27273 -36.7273 2720
6.54545 -36.7273 2720
5.81818 -36.7273 2720
5.09091 -36.7273 2720
4.36364 -36.7273 2720
3.63636 -36.7273 2720
2.90909 -36.7273 2720
2.18182 -36.7273 2720
1.45455 -36.7273 2720
0.727273 -36.7273 2720
-0 -36.7273 2720
-0.727273 -36.7273 2720
-1.45455 -36.7273 2720
-1.82648 -36.895 2732.42
-2.55708 -36.895 2732.42
-3.28767 -36.895 2732.42
-4.01826 -36.895 2732.42
-4.74886 -36.895 2732.42
-5.47945 -36.895 2732.42
-6.21005 -36.895 2732.42
-6.94064 -36.895 2732.42
-7.67123 -36.895 2732.42
-8.40183 -36.895 2732.42
-9.13242 -36.895 2732.42
-9.86301 -36.895 2732.42
-10.5936 -36.895 2732.42
-11.3242 -36.895 2732.42
-12.0548 -36.895 2732.42
-12.7854 -36.895 2732.42
-13.516 -36.895 2732.42
-14.2466 -36.895 2732.42
-14.9772 -36.895 2732.42
-15.7078 -36.895 2732.42
-16.4384 -36.895 2732.42
-17.1689 -36.895 2732.42
-17.8995 -36.895 2732.42
-18.6301 -36.895 2732.42
-19.3607 -36.895 2732.42
-20.0913 -36.895 2732.42
-20.8219 -36.895 2732.42
-21.5525 -36.895 2732.42
-22.2831 -36.895 2732.42
-23.0137 -36.895 2732.42
-23.7443 -36.895 2732.42
-24.4749 -36.895 2732.42
-24.9541 -37.0642 2744.95
-25.6881 -37.0642 2744.95
-26.422 -37.0642 2744.95
-27.3973 -36.895 2732.42
-27.8899 -37.0642 2744.95
-28.8584 -36.895 2732.42
-29.3578 -37.0642 2744.95
-30.0917 -37.0642 2744.95
-30.8257 -37.0642 2744.95
-31.5596 -37.0642 2744.95
-32.2936 -37.0642 2744.95
-33.0275 -37.0642 2744.95
-33.7615 -37.0642 2744.95
-34.4954 -37.0642 2744.95
-35.2294 -37.0642 2744.95
-35.9633 -37.0642 2744.95
-36.6972 -37.0642 2744.95
-37.4312 -37.0642 2744.95
-38.1651 -37.0642 2744.95
-38.8991 -37.0642 2744.95
-39.447 -37.235 2757.6
-40.1843 -37.235 2757.6
-41.1009 -37.0642 2744.95
-41.8349 -37.0642 2744.95
-42.5688 -37.0642 2744.95
-43.3028 -37.0642 2744.95
-44.0367 -37.0642 2744.95
-44.7706 -37.0642 2744.95
-45.5046 -37.0642 2744.95
-46.2385 -37.0642 2744.95
-46.9725 -37.0642 2744.95
-47.7064 -37.0642 2744.95
-48.4404 -37.0642 2744.95
-49.1743 -37.0642 2744.95
-49.9083 -37.0642 2744.95
-50.6422 -37.0642 2744.95
-51.3761 -37.0642 2744.95
-51.9816 -37.235 2757.6
-52.7189 -37.235 2757.6
-53.4562 -37.235 2757.6
-54.1935 -37.235 2757.6
-54.9309 -37.235 2757.6
-55.7798 -37.0642 2744.95
-56.5138 -37.0642 2744.95
-57.2477 -37.0642 2744.95
-57.9817 -37.0642 2744.95
-58.7156 -37.0642 2744.95
-66.6667 -24.0476 1780.95
-60.0922 -37.235 2757.6
-60.8295 -37.235 2757.6
-61.5668 -37.235 2757.6
-62.3041 -37.235 2757.6
-63.0415 -37.235 2757.6
-63.7788 -37.235 2757.6
-64.5161 -37.235 2757.6
-65.2535 -37.235 2757.6
-65.9908 -37.235 2757.6
-66.7281 -37.235 2757.6
-67.4654 -37.235 2757.6
-68.2028 -37.235 2757.6
-68.9401 -37.235 2757.6
-69.6774 -37.235 2757.6
-70.4147 -37.235 2757.6
-72.1951 -32.8455 2432.52
-71.9266 -37.0642 2744.95
-72.5926 -37.4074 2770.37
-73.3333 -37.4074 2770.37
-74.0741 -37.4074 2770.37
-74.8148 -37.4074 2770.37
-75.5556 -37.4074 2770.37
-76.2963 -37.4074 2770.37
-77.037 -37.4074 2770.37
-77.7778 -37.4074 2770.37
-78.5185 -37.4074 2770.37
-79.2593 -37.4074 2770.37
-80 -37.4074 2770.37
-80.7407 -37.4074 2770.37
-81.4815 -37.4074 2770.37
-82.2222 -37.4074 2770.37
-82.963 -37.4074 2770.37
-83.7037 -37.4074 2770.37
-84.4444 -37.4074 2770.37
-85.1852 -37.4074 2770.37
-85.9259 -37.4074 2770.37
-86.6667 -37.4074 2770.37
-87.4074 -37.4074 2770.37
-88.1481 -37.4074 2770.37
-88.8889 -37.4074 2770.37
-89.6296 -37.4074 2770.37
-90.3704 -37.4074 2770.37
-91.1111 -37.4074 2770.37
-91.8519 -37.4074 2770.37
-92.5926 -37.4074 2770.37
-93.3333 -37.4074 2770.37
-94.0741 -37.4074 2770.37
-94.8148 -37.4074 2770.37
-95.5556 -37.4074 2770.37
-96.2963 -37.4074 2770.37
-97.037 -37.4074 2770.37
-97.7778 -37.4074 2770.37
-98.5185 -37.4074 2770.37
-99.2593 -37.4074 2770.37
-100 -37.4074 2770.37
-99.1453 -34.5299 2557.26
-99.7447 -34.383 2546.38
-100.339 -34.2373 2535.59
-100.928 -34.0928 2524.89
-101.513 -33.9496 2514.29
-101.639 -33.1148 2452.46
-103.86 -35.4386 2624.56
-104.67 -35.5947 2636.12
-103.04 -32.32 2393.6
-103.68 -32.32 2393.6
-104.32 -32.32 2393.6
-104.96 -32.32 2393.6
-105.6 -32.32 2393.6
-107.563 -33.9496 2514.29
-108.235 -33.9496 2514.29
-107.631 -32.4498 2403.21
-109.333 -33.6667 2493.33
-108.125 -31.5625 2337.5
-111.588 -34.6781 2568.24
-112.275 -34.6781 2568.24
-112.961 -34.6781 2568.24
-113.648 -34.6781 2568.24
-114.335 -34.6781 2568.24
-115.021 -34.6781 2568.24
-115.556 -34.5299 2557.26
-116.239 -34.5299 2557.26
-116.923 -34.5299 2557.26
-117.607 -34.5299 2557.26
-118.291 -34.5299 2557.26
-118.974 -34.5299 2557.26
-119.658 -34.5299 2557.26
-120.342 -34.5299 2557.26
-121.026 -34.5299 2557.26
-121.888 -34.6781 2568.24
-122.575 -34.6781 2568.24
-123.262 -34.6781 2568.24
-123.948 -34.6781 2568.24
-124.444 -34.5299 2557.26
-125.128 -34.5299 2557.26
-125.812 -34.5299 2557.26
-126.102 -34.2373 2535.59
-127.179 -34.5299 2557.26
-126.473 -33.527 2482.99
-128.755 -34.6781 2568.24
