39.9529498245 -1155.3376088257 -1006.9021601192 -0.8702095676 0.3442902503 -0.3524195398
152.7517348669 -1150.4991239968 -971.1978183969 -0.5015853803 0.8413957811 0.2011597521
-108.0372872339 -1427.6262579899 -904.4291152201 -0.1159141701 0.0061665855 0.9932400910
163.3228201740 -1204.8778035502 -1283.9950948738 -0.3888853221 -0.6848889939 0.6161941840
240.3609820151 -1291.3129015233 -1082.3781561900 0.2434443243 0.8858895669 0.3948854723
-98.7842609090 -1015.0364081388 -1148.0694578070 0.9887291125 -0.0027926083 0.1496894903
-49.5409078625 -1521.1160506363 -945.3474078357 -0.6441551974 -0.3223394976 0.6936579344
200.4186332911 -1213.1517692068 -1173.9825034132 -0.0090991254 0.7883020711 0.6152211396
33.0794360435 -1154.5143572490 -969.1619746800 -0.2616705860 0.8085614802 0.5270264104
90.3137181830 -1716.4260609612 -986.4183302201 -0.0552162234 -0.4595746723 0.8864210564
134.6107138291 -1504.2124095787 -863.5238729137 -0.3297203344 -0.3001604492 0.8950911718
-55.7895986400 -1060.0089013134 -1059.7285015562 -0.2453474950 0.9123153021 0.3278496551
-40.3825315629 -1648.8490194782 -993.5654557612 -0.6652290075 -0.2565962022 0.7011624324
270.3475829100 -1220.0849322528 -1172.3628209719 -0.0097463755 0.7758170226 0.6308826798
310.5615095045 -1207.4333821776 -1189.8152795006 0.0533030070 0.8261976391 0.5608531454
200.3110912583 -1427.9500577758 -910.4756100181 -0.0427204512 0.6790627931 0.7328360567
270.3481102916 -1241.9231572560 -1142.3441766415 -0.0333789072 0.7662273292 0.6417020559
-88.4433990451 -1190.2949151888 -861.5238721778 0.1741005828 0.6666899145 0.7247161824
196.7847244072 -1142.2397001890 -916.9822971828 -0.3676713010 -0.3904030607 0.8440398478
218.6648590429 -1171.6327799046 -945.0922894739 0.3187291008 0.6676890810 0.6727577954
90.2713170318 -1189.8358465931 -922.0632709456 0.1432201219 0.7078961740 0.6916436970
307.9391985574 -1248.8518130327 -1140.8208307120 0.0524671921 0.7609430095 0.6466938456
-51.3292163389 -1198.9006323634 -864.0402646740 0.9546213184 -0.1561943091 0.2535773574
290.1792896657 -1249.5110478688 -1132.1602265049 -0.0384991375 0.7320369283 0.6801762654
115.1456034270 -1232.5184627051 -1333.5169855550 -0.3076142209 -0.6713690367 0.6742678308
-19.4632765286 -1519.2098151454 -915.3639691157 -0.7111383104 -0.2759565932 0.6466299267
-146.3914908231 -1274.2483916632 -881.3333226759 0.5919137828 0.4141614378 -0.6914538142
99.5280381111 -1222.3226638810 -891.5492804415 -0.4700123167 0.8824954946 -0.0170330289
241.8191937914 -1230.1000378685 -1005.9084712947 -0.5524965217 -0.5506630438 0.6257138369
-232.5624049666 -1313.8549724821 -928.3475503846 -0.2437017929 0.5948063269 -0.7660384256
219.8047240818 -1335.2104434082 -928.7100315749 0.5916380553 -0.3205931256 0.7397191760
149.9048505563 -1159.8984893076 -922.1651965476 -0.2975339646 0.9308163603 0.2122603195
-135.8185025742 -1008.3114086778 -1059.9392322508 -0.7097390826 0.6473124664 -0.2779514447
-83.1057641166 -1037.5485304450 -1111.6448753617 0.7728205053 -0.4522210788 0.4452466310
170.3680497731 -1441.1058108271 -892.3682693683 0.0262291637 0.8017386848 0.5970989133
230.1406171069 -1179.0984502734 -911.7172875498 0.4127836401 0.8942421350 0.1730337264
169.4670834019 -1222.3639557966 -841.1059783258 -0.0630433106 0.7643085375 0.6417616384
221.5281424251 -1367.1304462774 -946.2439441360 0.2644515292 -0.4113782271 0.8722576127
142.7108413810 -1163.6642621890 -989.5236152966 -0.3135286847 0.8213358089 -0.4765577121
9.7560350911 -1200.5641981107 -899.4103998058 0.8430995069 0.3044990903 0.4432420619
170.1527753167 -1159.7404034484 -952.2631343591 -0.2420135968 0.6231099517 0.7437495594
300.1571674836 -1245.5980884014 -1137.2860678540 0.0127365621 0.7464707050 0.6652963750
200.1680568206 -1161.9261182910 -921.6469874904 0.5097006641 0.8552726226 0.0933486693
-29.2158710352 -1562.0645020342 -932.9521141062 -0.4543015105 -0.3212312699 0.8309155245
270.3669749721 -1291.3410520012 -1082.3394103812 -0.0056604595 0.8055761587 0.5924651987
-76.7885590769 -1030.2950374138 -1122.8417231259 -0.8779532153 -0.1961874407 0.4367020036
187.8953589211 -1406.0313343375 -916.4686487051 0.0204821265 -0.3210192905 0.9468511486
170.2185683683 -1470.2013828086 -853.0938004729 -0.0719485324 0.7543133427 0.6525601809
39.3743828000 -1218.8117577958 -923.9099237566 -0.0681760056 -0.0477781023 0.9965286174
129.1807643368 -1221.4898747729 -845.1819545826 -0.2634187613 0.4112142391 0.8726473548
203.7726299266 -1362.9800369341 -902.5745117921 0.6352145829 -0.3292119550 0.6986572281
17.1524187428 -1152.6927482533 -1161.2693151251 0.2242247579 0.7494753631 -0.6229044374
237.3334941263 -1175.2644203848 -946.7592268673 0.1894303416 0.7516656175 0.6317554473
12.1067108748 -1200.6089562735 -932.6372445967 0.7746529510 0.6323083623 0.0099468790
170.2745460743 -1162.8299307564 -941.8003043487 0.1835635832 0.9543071893 -0.2358011862
300.4648276195 -1241.7322008630 -1142.6070055684 0.0426670363 0.7786242108 0.6260382276
297.6779018425 -1293.7342572052 -1313.7229910146 -0.2324589704 -0.6995007363 0.6757673764
-174.9369616433 -1684.1819580752 -1064.1780681939 -0.2756372259 -0.4458639468 0.8516040515
201.1909267464 -1161.8515194916 -912.6972669924 0.5702069045 0.6709657731 0.4739926343
161.1319168353 -1561.9507182818 -874.7026614374 -0.4467305075 -0.4573425286 0.7689406123
-288.3929061424 -1557.6566260455 -1039.7266389580 -0.5620220353 -0.2949456310 0.7727472462
-133.3003861921 -1015.8124356979 -947.6087980272 0.0804106303 0.8901031999 0.4486094339
-70.5381240976 -1013.7931639301 -962.5490321323 0.0963375370 0.9857955894 0.1375722899
290.7269967933 -1254.1379029385 -1125.5320215210 -0.0573469549 0.7228880133 0.6885813292
33.6208732793 -1492.0865402059 -869.9113738317 -0.2110603322 -0.3838183941 0.8989643911
243.6257395388 -1197.4598536231 -1223.0808977387 0.3900045484 0.8139475495 -0.4305645583
179.0237919840 -1248.9591242422 -864.8660508108 0.4344850350 0.7635441943 -0.4777269279
270.3625864092 -1274.4230125758 -1105.6250939762 0.0035805948 0.7669013078 0.6417550650
126.7144834069 -1174.2278174540 -954.6679475597 0.0331265135 0.9531027026 0.3008286430
150.4188181950 -1169.5985713734 -892.4520171582 -0.2886929843 0.7549133399 0.5888651884
59.7752392919 -1320.8932953571 -983.9447440673 -0.3528906898 -0.5000171426 0.7908546125
-25.7769375409 -1209.8845705389 -981.4018821662 -0.9305712737 0.3323388220 -0.1535838923
80.3104881946 -1287.3727513770 -1079.7881770007 0.2293046721 0.9729909632 0.0266073846
-87.8136624726 -1123.0329920926 -833.1338753741 -0.1702139670 0.2780011859 0.9453795778
199.1029544852 -1662.1077395983 -903.7086080521 -0.4442118246 -0.4307854980 0.7855569423
-30.2156428767 -1190.0978395564 -952.4577567172 -0.7294604845 0.6834066554 -0.0290300678
210.1581612575 -1191.7420498576 -883.2787967057 0.3709090167 0.6918587242 0.6194820474
-13.1677577059 -1461.3317076288 -889.0965060303 -0.4261283126 -0.1714771890 0.8882624808
-61.2282242355 -1205.0234267743 -886.5747602329 0.9863706218 0.0479735220 0.1573897632
320.1020302664 -1199.6925192811 -1200.8076861198 0.3069448291 0.8617644221 0.4039145363
15.2126962888 -1415.2802084405 -911.7517962198 -0.0019657703 0.7706900948 0.6372071198
-21.4973084785 -1035.5699394804 -1057.7269805115 0.4236516500 0.6678147350 -0.6119989863
190.5458557459 -1548.0121601014 -854.8561792239 -0.2833027232 -0.4047567329 0.8694317421
-128.6965276402 -1212.4772124983 -836.2362408371 -0.1149350821 0.0268129392 0.9930110741
220.3574190447 -1278.0185764546 -1100.6762248595 0.0340870786 0.7938579265 0.6071471516
81.1812899155 -1169.6353313617 -1283.0425229266 0.2734598188 0.7300721848 -0.6262701753
164.5114976602 -1154.7156254229 -955.8175084716 -0.2090873991 0.7997814076 0.5627007726
217.1859121226 -1302.1317581060 -908.1944072174 0.3029277500 -0.4558754483 0.8369064188
-39.6951905023 -1399.3057214780 -941.5513895332 0.0297006159 0.7542473273 0.6559183201
254.5814767843 -1373.2991485083 -977.5809247597 0.7687580573 0.0452380665 0.6379377451
-68.9023395590 -1641.1837878246 -1004.1157420254 -0.6743042151 -0.3115065760 0.6695352706
101.4007656820 -1167.2198327018 -1229.2743248570 0.0479742834 0.7644505052 0.6428949317
40.2994805490 -1416.3503156831 -918.3260766051 0.0674016479 0.7663684852 0.6388555100
-4.5153924622 -1085.9795821613 -958.4351772865 -0.9128002707 0.2902887734 -0.2872770333
185.0268829265 -1123.2112583805 -907.1901712695 0.4111281411 -0.1860674156 0.8923858854
239.1642332473 -1206.4693759032 -1191.1421203079 0.0500619865 0.7466442206 0.6633371732
190.3008748303 -1448.9806201297 -881.7741023140 -0.0163035854 0.8076161674 0.5894830950
-139.2750824607 -1005.2508164848 -956.7524936381 0.0856965550 0.9268211243 0.3655936324
137.0059866206 -1249.6880313505 -919.6972469034 -0.8333674481 -0.3109812597 0.4569347356
-26.7957507195 -1156.5976274831 -940.5694708334 0.9820807539 0.0091071651 0.1882404112
185.4488163442 -1243.6757509573 -827.0285450129 0.7905301634 0.0493546380 0.6104311430
-77.4816264902 -1041.3521874356 -1100.8130277367 0.7867011203 0.5356339701 -0.3069162711
190.4584914965 -1311.1264806611 -859.2332466568 0.7418912141 -0.2859600443 0.6064851848
-64.5050305148 -1495.3830231455 -944.9024435529 -0.6474090684 -0.2918751579 0.7040386284
-101.2072711784 -1558.0394013497 -990.8010035289 0.0252034735 -0.4985872636 0.8664730379
178.7604571967 -1540.5530261316 -847.7184808234 -0.3211925472 -0.4263584333 0.8456085584
289.1384313143 -1260.3193368170 -1282.6899539163 -0.2144574018 -0.7121978185 0.6684177512
20.6409271614 -1390.3148471364 -950.9600456430 0.0381299383 0.7651089640 0.6427708620
272.8957660129 -1275.8881384000 -1010.3601796689 -0.8521515322 -0.3873913324 0.3518035272
180.7689408952 -1570.1031615265 -859.8886369332 -0.3745811597 -0.4259090496 0.8235838975
183.3502306369 -1592.0022251574 -884.4950477020 -0.4240687248 -0.4534443128 0.7839349284
80.8768106636 -1162.7428907134 -959.9136641422 0.3223350743 0.9397963091 -0.1135032916
9.9886741470 -1029.9775230655 -1014.9174422936 0.5615243719 0.7968328950 -0.2230419631
42.4627384048 -1190.6115131924 -942.4520227318 0.7501975432 0.3014598416 0.5884943586
222.0681520728 -1381.3607967335 -955.7668177081 0.4532493231 -0.1507862342 0.8785377412
7.1820122370 -1026.6631139565 -961.5690591053 0.2925074875 0.9449981949 0.1463481513
-37.2651715863 -1035.0682872975 -1000.9499073250 0.6495295401 0.5810489156 -0.4904014011
89.8639740401 -1469.2972218433 -855.0012188849 -0.1252508451 0.2805645382 0.9516279555
310.2959773085 -1212.4859914816 -1182.8910274356 0.0609691066 0.8103803273 0.5827233419
145.6389228121 -1664.0588996291 -951.8409459529 0.2877032413 0.5025420995 -0.8152780404
20.5208770351 -1233.5733625890 -1144.5574687862 0.0886622533 0.8221647955 0.5623024577
-71.6179548856 -1133.2020425291 -1244.8428855263 0.0977278769 0.7387476080 0.6668592309
-181.2684088234 -1227.7183872474 -868.1316151095 0.0238377098 -0.3981409470 0.9170144764
-13.3715838935 -1145.2557278551 -842.6056137481 0.9421040785 0.1721090929 0.2877818019
86.8380916031 -1382.6402295755 -960.1846079627 -0.5314090471 0.4130072740 0.7396143700
131.9976038858 -1160.4039698260 -835.8967018459 -0.6513960454 -0.3852821063 0.6536366656
-116.1146417654 -1420.8296971325 -905.7595896303 -0.4078477943 0.1789290278 0.8953460670
210.3550003438 -1283.0431443114 -1093.7605005031 -0.0099603967 0.9073501865 0.4202575752
197.1467066518 -1489.1903557147 -834.3177928586 0.4326608382 0.3084946878 0.8471337714
64.3590838426 -1238.3210069339 -926.2349791452 -0.5548609429 -0.1496246118 0.8183775471
310.2910597316 -1220.0720766718 -1172.3406460088 0.0670267218 0.7513941904 0.6564405451
-53.3108507265 -1014.0390040393 -1033.9508426908 0.2659579405 0.9469237812 -0.1805594820
224.8585846640 -1345.3452488766 -929.8682269172 0.6976155309 -0.3119910438 0.6449760923
157.2620601670 -1265.7756710325 -861.5322842710 0.1720764763 0.5752472311 0.7996751274
-148.3372138156 -1098.5994389554 -850.6095492828 -0.1348833923 0.4166375492 0.8990103576
211.4614575140 -1412.6524289481 -923.3199815671 0.2187767253 0.6944251881 0.6855001113
190.4408438940 -1453.8025665185 -874.8926843859 -0.0078568206 0.7926906519 0.6095734580
137.4747405300 -1247.8315579260 -913.1448287059 -0.8320894562 -0.2896493308 0.4730014820
-121.5454907917 -1003.6835381886 -1081.7202509781 0.6906263349 0.7186458417 0.0811382757
-32.9954694830 -1482.6169087322 -901.7200118936 0.4513744973 0.4788685448 -0.7529581529
344.0556790782 -1249.3761347374 -1239.8464775845 -0.5634136553 -0.6282503492 0.5365319672
61.6188655865 -1249.9205077473 -1122.8953050431 0.2220431643 0.7742341306 0.5926705191
-160.2413200377 -1076.7929447650 -869.1034800034 -0.2956119290 0.6429928586 0.7065223077
270.7672803564 -1245.6004638749 -1137.2827982953 -0.0296993116 0.7412970566 0.6705196677
-89.3545315980 -1192.8873679032 -852.4338901992 0.3406381275 0.6428282545 0.6861031273
138.4010228186 -1187.4697984925 -956.0749449239 0.1842731567 0.9301500032 0.3175915225
160.2732158998 -1481.7659774597 -842.7951977573 -0.2163224453 0.5633849633 0.7973719225
328.7023833988 -1206.0071784798 -1207.8385677468 0.6077758184 0.7906839020 -0.0736717152
184.9367723904 -1641.8856010154 -900.1870051951 -0.4519176479 -0.3685390811 0.8123726886
50.4166268958 -1436.5280259638 -898.6690496898 0.0360815922 0.7289834454 0.6835797357
-153.7508639272 -1206.7604176557 -858.9877204444 -0.4076124562 0.1724951423 0.8967148440
199.9032213850 -1169.0856060265 -921.4018520251 0.2543679501 0.9348234506 0.2477943948
224.3718025477 -1284.4485099904 -1081.8225270847 0.2036840177 0.9712723726 0.1230560817
-88.0006134866 -1109.5933400698 -835.0052152478 -0.1146405121 0.2159888446 0.9696423939
-25.9999724765 -1137.2101397920 -852.5019448488 -0.1252305466 0.9710127000 0.2035967745
360.5708409765 -1292.8610026394 -1268.6154928042 0.7072270426 0.5977808009 -0.3774758592
290.8278457339 -1265.7645596574 -1117.5424320323 -0.0070852275 0.7528374166 0.6581683856
-27.0365865215 -1046.5007583794 -899.9768193938 0.1197224892 0.8414685832 0.5268748894
10.5380634470 -1403.1726336617 -934.9346401301 -0.0876542018 0.7841306481 0.6143743709
189.9837047985 -1404.9528965672 -917.9529909545 0.0792061963 -0.3798260428 0.9216607595
-138.1368208916 -1127.7818044006 -891.4809486108 -0.2224907317 -0.2341077581 0.9464097590
99.2164536569 -1202.4020510847 -1184.5320029362 0.0486583127 0.7343945299 0.6769763978
110.3271427974 -1204.3209492672 -1185.5974777664 0.0716524956 0.7396654795 0.6691493842
-261.3529791865 -1396.7045726535 -945.3661221252 -0.5763656939 -0.3291539673 0.7479707566
180.0754387942 -1477.7728847409 -850.0325934845 -0.0443499522 0.7624731645 0.6454980675
300.1968111875 -1261.2486455598 -1121.3387054997 -0.0057622016 0.7572016779 0.6531557364
60.3602894418 -1412.7006881100 -923.3493580132 -0.0193265696 0.7870748466 0.6165546768
103.8173961923 -1481.0593695025 -854.9003202010 -0.3103238459 0.0087490078 0.9505906403
107.8942542945 -1482.1140702461 -860.4920378592 -0.3066019230 0.0289319324 0.9513980261
261.5769505014 -1198.2548644596 -1198.7952303905 0.0452893339 0.8400623447 0.5405960906
-176.4714038365 -1417.8968078435 -940.6452169874 -0.1307732280 -0.3816373117 0.9150143852
64.4501295445 -1567.5219073552 -899.7301919911 -0.0080557573 -0.4798246912 0.8773274021
78.1320676935 -1272.8459333978 -926.1793792299 -0.9227850903 -0.2132782207 0.3209050913
242.6074739334 -1180.5525316011 -950.8459947371 0.4708595013 0.7358353950 0.4866596361
213.7132396501 -1251.0005797626 -879.6652671746 0.4789389308 -0.3396958069 0.8094592388
170.2512435429 -1208.3922071662 -1181.0618553411 0.0164773867 0.7877283784 0.6158023202
2.4531776042 -1062.6756548287 -952.6183038316 -0.6471855992 0.6922690477 -0.3192402947
272.7656276811 -1310.0872591995 -1056.5374697161 0.4348641606 0.7267385249 0.5317370387
-213.1670701998 -1482.2506670097 -980.8072220544 -0.3183162033 -0.4275886983 0.8460748784
218.9235344452 -1162.6825240836 -961.8464372913 0.2672134187 0.7550917002 0.5986931711
33.5763538148 -1436.6744914252 -898.4674572768 0.0411377793 0.7514035314 0.6585593489
-109.9997073283 -992.2473895191 -1122.6386787545 0.9382097420 0.0427588635 0.3434154331
-214.2879249730 -1396.1707465434 -938.0537140848 -0.2423090887 0.1401605388 0.9600215252
178.0110098073 -1351.4009720281 -887.7624019644 -0.3003079190 -0.4739997685 0.8277314620
130.0929068819 -1212.2099557803 -872.4245195583 0.9705747113 0.2392624631 0.0271699023
-28.3738151177 -1332.9559009962 -931.8131429899 0.1584564272 -0.4140763311 0.8963438808
-161.1242461277 -1111.8411240982 -863.9485541912 -0.8771432331 0.4244358282 0.2246641412
307.6163537437 -1203.3671029295 -1185.8643280684 0.0510506449 0.8282266295 0.5580631522
7.4655504038 -1185.2168083800 -926.6300198542 0.1536333993 0.9773232892 0.1457256565
222.4716694536 -1228.5515570101 -1160.7486054678 0.0660338818 0.7921813567 0.6067027481
-9.0131243068 -1022.8199044082 -1003.1422651977 0.0771763105 0.9969113743 0.0145440349
56.0616118071 -1119.0006089652 -995.4732418841 0.9639459366 0.1022333125 0.2456757641
270.0634810277 -1204.4853541745 -1185.9108003789 0.0172692282 0.7659778861 0.6426349288
88.4183596684 -1500.9475075540 -868.0176250325 -0.1544762461 -0.4779185599 0.8647143688
325.8247142702 -1228.5864726001 -1170.6296685735 0.0984564609 0.8122606525 0.5749251758
190.1194440679 -1457.6326813933 -870.1099462178 -0.0026642964 0.7826269648 0.6224852893
81.3497071984 -1351.4259391714 -973.1106947767 -0.9359348121 0.0682179578 0.3455030214
371.4502795795 -1339.3507194493 -1312.4331839985 -0.5564887108 -0.6408858442 0.5287585928
-64.5432318860 -1445.1633934679 -919.6356201992 -0.4722017599 -0.3427660637 0.8121187866
190.4436699935 -1204.5359521179 -1185.8411582845 0.0058927193 0.7767893249 0.6297329756
-233.6297160054 -1493.9472790018 -991.8439775641 -0.2592437952 -0.4226791213 0.8684094743
229.1840820992 -1297.8571431109 -1346.1404685919 -0.3341718190 -0.6873148916 0.6449243639
280.1751546081 -1261.5002962686 -1122.2959347007 0.0016624112 0.7684718905 0.6398813874
177.2095743988 -1203.0669363261 -848.2303529833 0.3385582278 0.7288852675 -0.5950668812
160.3629588554 -1249.2066288474 -1132.3193380249 0.0183627840 0.7835425681 0.6210667050
120.1934504827 -1383.9702240543 -944.5631396015 -0.2587304108 -0.1616743156 0.9523234693
180.3860051257 -1441.1032239814 -892.3718298558 -0.0240542387 0.8103507504 0.5854511550
100.3696286371 -1287.3846478211 -1079.7718029501 -0.0009318497 0.9592925424 0.2824127293
-195.6969673389 -1132.9691531267 -858.6428767453 -0.2905437526 0.9309271333 0.2212668078
140.3409554130 -1241.9327173226 -1142.3310183388 0.0603779843 0.7477981676 0.6611750144
139.7834504165 -1204.1815012948 -1021.6940605406 0.3055297381 -0.5944542642 0.7438250513
-106.0741202824 -1136.0107305456 -1195.3821747925 0.3217734288 0.6991635142 -0.6384608375
300.1195956478 -1198.7678489255 -1201.4915882626 0.0657254993 0.8983814208 0.4342706316
-12.3092889149 -1307.4759530103 -944.5111664725 0.1521569270 -0.5292331074 0.8347218625
85.2367420416 -1278.1941575509 -1064.7412502945 0.4076416115 0.7394305097 -0.5357899195
203.0761619194 -1157.2553302149 -971.5466129813 0.3768238727 0.9152644705 -0.1424595311
183.3030751706 -1186.3960876103 -1251.0783490998 0.3087637036 0.7132940322 -0.6291872527
241.0811959860 -1245.5966123862 -1137.2880994148 -0.0130191451 0.8028626680 0.5960218437
-56.7962385551 -1179.7394991606 -850.2521869926 0.8513743948 -0.2841883242 0.4409066073
60.4278972812 -1278.8026656992 -1091.5838879845 0.4171592743 0.8365068139 0.3552949342
180.2861564675 -1436.5605167642 -898.6243299396 0.0418332946 0.7973461856 0.6020706236
100.4842823396 -1292.0630018915 -1073.3326009900 -0.0218366204 0.9995371266 -0.0211824112
-262.4681948806 -1484.2878910446 -995.1319284018 -0.4485259612 -0.3327394575 0.8295233062
5.0105364154 -1568.4485401188 -916.9139139495 -0.4587001997 -0.4411298550 0.7713615091
-209.7966620745 -1131.0521531642 -860.0873251201 -0.9484551783 0.3019834831 0.0961184197
80.4533463179 -1184.3885790113 -1205.6435728394 0.0652075749 0.7603332320 0.6462517687
361.3758743334 -1287.7685695763 -1263.0415371077 0.7239759539 0.5918708500 -0.3543271300
229.5267166126 -1382.5475503466 -945.1191103095 0.7141720314 0.0260585385 0.6994849978
74.5481426264 -1537.3993182883 -887.0719745532 0.1115243169 -0.4811961992 0.8694898186
184.0039896098 -1197.3607506462 -1017.0462800796 -0.2082797987 -0.6405571759 0.7391251787
18.1814463762 -1082.0906922610 -934.5934392933 0.3497680153 0.7587284268 -0.5495393615
22.3203663229 -1148.9898885664 -1289.0212043084 0.3536420301 0.7676313680 -0.5344898478
159.5584151228 -1277.3966191446 -901.0666688498 0.3699745110 0.5811702594 -0.7248172120
170.3851220269 -1424.1574955648 -915.4829985219 -0.0580652057 0.6400777676 0.7661128398
280.2527608112 -1237.5360930035 -1149.3469960626 -0.0060631297 0.7819283370 0.6233388439
0.4587592235 -1375.2500719662 -966.8485523370 -0.0360617954 0.6978804772 0.7153057992
365.3582710532 -1324.0162383727 -1310.1355628176 -0.7024311191 -0.5832890483 0.4078779340
191.4789237964 -1352.2598583453 -882.8714088413 -0.0036649965 -0.4008484881 0.9161370298
311.6257923852 -1223.9458746451 -1164.2441792756 0.0517103260 0.7934274974 0.6064642187
179.2727682736 -1496.6855838647 -824.0014963432 -0.0312723264 0.0829971009 0.9960589957
59.0706384290 -1488.0815926391 -861.3974245929 -0.0025847445 -0.3602560653 0.9328498735
101.1411279276 -1610.8573259667 -924.9960689878 -0.1134479691 -0.4312129885 0.8950893345
221.2083300808 -1289.5180090324 -1084.8486137637 0.1370294170 0.9600040349 0.2441622245
4.9669660747 -1568.5631763490 -918.6207572868 -0.4753758835 -0.3948416241 0.7862047197
280.4153040449 -1241.9633712833 -1142.2888267814 -0.0073567241 0.7683119834 0.6400332607
-202.9535523985 -1385.3354843551 -936.9919508836 0.0653856908 0.5517472555 0.8314443321
-75.1302328247 -1029.6896829330 -1127.9009553046 -0.8509203889 -0.1213248369 0.5110917488
140.5972823850 -1246.8123057940 -848.2820109423 -0.2487959967 0.8861363858 -0.3909767995
174.6801972915 -1272.2352510804 -1076.8559751447 0.1159305398 0.7678676655 -0.6300312359
314.1037323199 -1225.4356838839 -1157.0751453390 -0.0173336182 0.7543184338 0.6562798534
-47.6994350064 -1013.0960154332 -1012.0146355011 0.1603090399 0.9802763626 -0.1155822849
8.0290125686 -1280.8764142171 -925.3264029389 0.6770553337 -0.3179734462 0.6636934252
-169.1416616191 -1079.7055593511 -878.7475554198 -0.3363162822 0.2549792902 0.9065742771
-130.3084252187 -1408.4088326532 -921.7700961754 -0.1322370604 0.3440361007 0.9295980428
-38.9123122540 -1719.5957704608 -1013.4596256847 -0.5493735860 -0.3974485605 0.7349988468
-46.6403859496 -1122.4181690695 -854.3221487821 -0.1539166624 0.6877440761 -0.7094489036
-91.5422724014 -1015.2747252849 -942.9557667932 0.1221005492 0.9205446676 0.3710646452
200.9050882091 -1399.2023453881 -912.2478109730 0.2206585950 -0.3468503268 0.9115945564
265.0016142528 -1266.1850498622 -1023.7153353051 -0.7677563960 -0.4187952471 0.4849336629
-146.0005938809 -1460.0457511229 -941.3100662507 -0.2474997965 -0.4442531803 0.8610359821
-80.6274820130 -1451.0393351025 -928.2718752597 -0.1322504715 -0.4977890786 0.8571556720
70.4592566181 -1416.3543104182 -918.3205783239 0.0035557926 0.7812128548 0.6242546210
154.2747462650 -1149.0897775700 -819.4946028412 -0.4348404564 -0.4556594547 0.7767163181
20.6241171188 -1222.3746014544 -1153.7794031041 0.0531108066 0.7562061794 0.6521744064
143.0786410118 -1270.6182625669 -1081.8410801226 -0.2977625903 0.7989103323 -0.5225703023
-16.5616388415 -1070.7653568614 -904.8587511116 0.8338273096 0.2700745161 0.4814475813
209.9089216281 -1181.0729507862 -943.4136266071 -0.3200025762 -0.3220377146 0.8910050851
349.8903138411 -1247.7962630041 -1224.9229032271 -0.7255153342 -0.5521120471 0.4108525129
112.9976819993 -1180.4662124275 -1195.3392333687 -0.0807704169 0.6825282265 0.7263823785
75.8295937528 -1288.2335248558 -953.1518731620 -0.6273079990 -0.4631514564 0.6260793901
100.7294630094 -1170.7953265063 -961.6481780232 0.2118450107 0.9703186518 -0.1166336376
253.8613778894 -1172.5445367215 -941.5063426182 0.8021181819 0.5953257689 0.0468364296
-129.0356055092 -1010.6985859777 -1072.8694565990 -0.3979167175 0.9092433221 -0.1222246581
46.3075355132 -1603.4010373284 -925.5953766805 -0.3050747707 -0.4495749192 0.8395306881
-142.3082230771 -1522.3384661285 -980.3789861414 -0.3591793962 -0.4400130341 0.8230301885
345.5689517587 -1236.3917083674 -1215.3215709996 0.8515127016 0.4781873100 -0.2150883902
110.7827134352 -1200.1900200924 -1191.2577173482 0.0766524211 0.7334734056 0.6753822396
-36.0915075177 -1540.2961753625 -935.6776968278 -0.5534998578 -0.2786573437 0.7848490251
196.7485465324 -1390.7389738257 -902.0276255105 0.1426119236 -0.4513918902 0.8808559477
249.0538461094 -1198.2309093220 -1222.0617385622 0.1646851927 0.8533332426 -0.4946727851
249.2537576071 -1190.2179049588 -942.6000506383 0.8283701696 0.2727046207 0.4893210112
20.7054398851 -1238.4200853031 -943.7864752775 -0.4450347033 -0.3881153862 0.8070381403
-28.3167711624 -1642.2602629501 -972.0414574820 -0.6306451685 -0.3713193180 0.6814753374
-39.7706021846 -1014.5009724101 -973.6376183887 0.1160394914 0.9705501444 0.2111095773
90.3560031192 -1453.8305276799 -874.8541991489 0.0242891862 0.7648232093 0.6437821790
-99.3036141840 -1024.5932085752 -924.7708747735 0.0579578566 0.8833680533 0.4650825402
181.0535365284 -1152.9402851462 -980.6198970991 0.1314329195 0.9116878274 -0.3892951233
160.0255661375 -1523.9373976003 -853.3707591701 -0.4326475112 -0.3985304598 0.8086962370
119.2326532956 -1170.8188673596 -1262.2823886970 0.3129492084 0.8171376660 -0.4840958870
136.4433363535 -1536.5558352901 -870.6244575692 -0.3601666558 -0.4477978566 0.8183868643
160.3395093831 -1262.8351414178 -1113.5612997201 0.0083321863 0.7748450940 0.6320962387
290.2066611444 -1211.6530486175 -1182.5555859834 -0.0076188213 0.7873475681 0.6164622946
248.8384724365 -1192.3830905685 -934.5041713465 -0.9692307276 0.0204690839 -0.2453014741
20.9597284444 -1244.1394203100 -952.6609648906 -0.4151401012 -0.3871822147 0.8232548992
-20.6603731593 -1591.1190737852 -949.7475941365 -0.4949479975 -0.3292206215 0.8041394544
59.1927139457 -1208.6252441939 -930.5045316048 -0.6928588546 0.3665970071 0.6209293373
-177.0377561586 -1309.9027079690 -915.9274895003 -0.2776915962 -0.3023578283 0.9118481897
10.8491635703 -1106.5903988739 -1114.3688259346 -0.4445823661 -0.6167895646 0.6495515012
-248.7228052012 -1442.1060490423 -972.8615959717 -0.4890530060 -0.3246036968 0.8096045932
-13.5207222981 -1187.4429325421 -1009.9411058847 -0.9185045219 0.3940352828 -0.0329490398
-153.3814291253 -1475.8847302408 -945.4033923604 -0.2602851316 -0.4858259036 0.8344008879
30.3618819587 -1404.0185317805 -935.1764636624 0.1569978526 0.7739751224 0.6134445241
246.6909737598 -1208.7540017319 -935.2432802257 0.9337034719 0.2940474895 0.2042887675
174.4049708545 -1396.8508575010 -905.3373074588 -0.3172616028 -0.4972825145 0.8074993351
24.2630461806 -1174.6460864944 -943.2255721973 -0.4576998502 0.7240994916 0.5159367921
203.4935490998 -1184.4049666413 -1000.4440422274 -0.4158519919 -0.5877431415 0.6939921617
280.4335515780 -1269.3912666141 -1112.1417103832 0.0147400192 0.7701797743 0.6376565275
228.1906065201 -1231.3953109321 -884.5024452586 0.7803182739 -0.1673136944 0.6025856943
281.3155418532 -1309.7169428034 -1335.8564754540 -0.2917819243 -0.6881181697 0.6643468169
-32.3746375200 -1125.9450898321 -1150.6945520576 0.2404534795 0.7843495632 -0.5718198028
179.7930875280 -1221.3926030241 -1163.9399020544 0.0018477007 0.7602892802 0.6495820166
193.3812362007 -1166.9815429905 -990.8756596516 0.3073776163 0.7383165494 -0.6003396321
130.4188610489 -1174.1771977493 -965.2502625254 -0.0757677829 0.8768512611 0.4747537351
78.3013085971 -1363.1422760906 -983.5135036769 -0.5322800940 0.5671070056 0.6285439887
188.3744125569 -1220.9919817453 -869.0507721082 -0.4894188810 0.0839343769 0.8680001033
-66.2673693879 -1212.6871963449 -882.4063674159 0.9594383210 0.0158075591 0.2814750955
200.9755862056 -1549.8681543852 -853.1376904703 -0.1973969724 -0.3894883374 0.8996295183
191.0043446850 -1591.2904739863 -869.3165770410 -0.3781117612 -0.4424302798 0.8131955138
240.5661399071 -1295.3008734431 -1076.8891837403 0.3261603856 0.8944839662 0.3058068623
97.4197086467 -1362.5931112319 -929.1131658461 -0.7394799323 -0.4092649007 0.5344826198
-93.3819171494 -1037.9433541510 -1052.3573675405 0.8839997364 0.4556716953 -0.1044402804
144.1562494636 -1721.6271244930 -968.2862849800 -0.3757424199 -0.4201912045 0.8259884899
48.1772044356 -1138.6307363378 -985.6866362944 0.9417535056 -0.1350453064 0.3079985389
140.2687066582 -1436.5589633275 -898.6264680617 0.0021109433 0.7946719455 0.6070354544
39.9878460374 -1162.1278512404 -953.1556407297 -0.1712981551 0.8185854636 0.5482470071
8.7272012339 -1040.6661908104 -1023.3314514914 -0.5577230194 -0.3206930989 0.7655723153
-14.4038939849 -1240.0717030415 -896.9107610982 0.5187383492 -0.5006437831 0.6930125017
72.7948721209 -1187.4061958302 -949.5784492217 -0.1376188242 0.7044467862 0.6962871424
190.1396328926 -1273.2822196380 -1105.5612105862 0.0467996840 0.7721160875 0.6337558971
70.3884963124 -1262.5646820294 -1113.4545081296 0.1183835951 0.7332486682 0.6695757724
-91.4788368421 -1100.5206589287 -1140.2115147046 0.4252691008 0.8673355447 -0.2586024842
358.1176281234 -1305.5775823080 -1297.4220524648 -0.7607811766 -0.5317083806 0.3721534620
-89.3381296551 -1053.7130523570 -884.6908482653 -0.0109951942 0.7840288292 0.6206270222
336.4025912338 -1218.3577140711 -1174.7792265891 0.4992732474 0.7126733364 0.4927706770
159.2493893884 -1272.2513537134 -900.8548710216 -0.3928659874 -0.5238694404 0.7557890747
-18.3373162977 -1068.9567877973 -1093.0823203094 0.4000798339 0.7458179483 -0.5326271815
82.8229140861 -1482.9136162231 -867.6768961051 0.0312905418 -0.1697578411 0.9849889225
310.0079652475 -1228.4872267732 -1160.9703833936 0.0299270738 0.8009724714 0.5979527325
-87.0550358942 -1237.2526279286 -835.8692154226 -0.0368451607 -0.4210859552 0.9062720631
347.8741277465 -1253.8639720419 -1232.4445622925 -0.6992546480 -0.5726265875 0.4279506146
161.8908438496 -1223.8856057034 -834.2443488049 -0.4194800543 0.6855349852 0.5950447615
160.6522864553 -1150.7999753516 -971.7113056199 -0.3782712251 0.9018518047 0.2087443474
130.5470692368 -1237.1550250070 -1148.9069476636 0.0551443505 0.7461920690 0.6634429115
202.5212701126 -1179.9585256763 -948.5903002577 -0.1743876033 -0.3789734885 0.9088278488
160.3539255478 -1424.2942229844 -915.5074349293 -0.0339465578 0.7086156621 0.7047776065
170.3522157532 -1427.9218130732 -910.5144855162 0.0118945648 0.7367972900 0.6760090775
-231.7175803233 -1468.5581816612 -972.9939150007 -0.2288517772 -0.4671787981 0.8540321040
273.0889984871 -1293.3129963886 -1016.7791800572 0.9818624333 0.1165999443 0.1495012208
258.7669850183 -1256.9860582880 -1129.6250026059 0.0415527041 0.7522672113 0.6575465121
238.9016829051 -1171.8663741195 -952.4421476379 0.4075563453 0.8988414621 0.1611888689
-148.5473214345 -1517.3776886702 -977.9518297515 -0.3611628068 -0.4344129854 0.8251344042
27.3310567903 -1168.8152633055 -951.6787315346 -0.4417906797 0.7616971094 0.4739604507
146.0906365721 -1293.0621953206 -1381.9344837827 -0.2963882950 -0.6978649701 0.6520264274
-256.1407158648 -1614.6589226555 -1061.6691878857 -0.2334591296 -0.4346549074 0.8698114430
-89.2275474673 -1036.6734241608 -909.2247113556 0.0265624959 0.8462259401 0.5321617161
174.3294185592 -1144.5638885190 -963.4443205773 -0.0021930462 0.9557670289 0.2941166044
-19.4759337665 -1106.0598872809 -924.8934917523 -0.9066005285 0.3383460312 -0.2521853385
-141.5036843438 -1243.4529764961 -860.8356869217 0.3829748881 0.5898250686 -0.7109406610
21.2743856950 -1190.8557071179 -925.1808977513 0.1749486087 0.6758678819 0.7159578134
81.2450563348 -1220.8719999965 -909.6191755005 -0.3953009685 0.1453115073 0.9069849558
-23.3128458664 -1237.7884634904 -867.1842235017 -0.3082286850 0.5653740676 -0.7650798922
49.9943340347 -1184.1673853680 -1013.5353437261 0.7656202081 0.4593725893 -0.4503360091
-78.6280494902 -1503.3506276864 -960.7484901926 0.0184166997 -0.5186296843 0.8548006058
0.7512070298 -1130.9769851738 -1261.9807654468 0.1641717958 0.8726138358 0.4599920815
10.3270682857 -1412.5726364525 -923.2317950062 -0.0412656731 0.7531478050 0.6565558072
-139.2660059110 -1251.2276077034 -850.9665725467 -0.2327181822 -0.4570787143 0.8584412016
78.1668489234 -1246.0428403724 -902.0814393547 -0.8537693124 0.3732940350 0.3629456222
135.2121373358 -1165.3872806699 -915.9329581848 -0.5797850900 0.8064790784 0.1159342295
154.2084324018 -1204.0941201075 -980.1664668501 0.3640420651 0.9311090265 -0.0225689073
191.1502687814 -1161.9406693929 -945.5162268425 0.0522739369 0.9903875815 0.1280619924
28.1848101214 -1142.3447678185 -1139.6926621619 0.8245633121 0.4499582819 -0.3429765136
161.4166399611 -1411.6530521285 -930.5553787148 -0.0592921517 0.4452597935 0.8934361516
20.6948423394 -1449.0808237889 -881.3731200430 0.0400978912 0.7552691253 0.6541870584
160.1790448530 -1179.6811373565 -1212.8603048930 0.0220631488 0.7365559317 0.6760166987
276.6640907188 -1332.8528234565 -1029.7002991426 0.9529799641 0.0040445807 0.3030063190
200.3709159684 -1453.8319802168 -874.8521999033 -0.0061029314 0.7865144892 0.6175416687
290.4977805380 -1237.3770334538 -1149.1021999145 -0.0076410520 0.7980911277 0.6024883120
-56.5088425975 -1366.7623886250 -978.5308462344 0.1793774587 0.0028125875 0.9837763042
-180.8493427537 -1218.1199117500 -859.3166666427 -0.0355748071 -0.2112135502 0.9767923368
19.5920252084 -1058.9199297382 -1063.7375318653 0.5705033989 0.6143944650 -0.5450186357
14.6339403226 -1469.1869817383 -860.5989641131 -0.2703679836 0.1212842398 0.9550870571
202.2700023211 -1392.4588495821 -911.3823877530 0.2007929432 -0.4215466813 0.8842966637
-68.5043679039 -1197.0031629294 -1382.3996020663 -0.1515057195 -0.7176775340 0.6796947654
40.2673585274 -1154.6912014934 -1007.7918634846 -0.8661985898 0.3657787878 -0.3404495284
248.6031760183 -1188.5620470736 -947.9875564675 0.8768292670 0.2799825040 0.3908711221
-113.1647505003 -1550.3977253601 -974.6448892840 -0.0719330863 -0.5050453632 0.8600900024
-148.6560166479 -1286.9455245798 -882.1688948888 -0.2988148885 -0.4809063350 0.8242807527
0.3511592692 -1420.6816526928 -912.3645026534 -0.0289803332 0.7652342428 0.6430992878
249.1911411737 -1254.1529699756 -1125.5112835235 -0.0126348325 0.7608814372 0.6487679089
-293.2471879848 -1583.3003075723 -1062.9956119825 -0.5036841139 -0.2662625425 0.8218312308
-106.8504378613 -1202.2129224915 -826.6369855961 -0.2567061045 -0.3552722967 0.8988234371
40.6192344765 -1375.2614878402 -966.8328397344 -0.0000851952 0.7576457526 0.6526659991
-59.0181961416 -1681.2211611017 -1012.9949791079 -0.7198870432 -0.2925900175 0.6294074410
70.7254200085 -1466.1787549484 -858.3933369741 0.1211168522 0.4437817936 0.8879123987
241.0373969149 -1357.7826999015 -952.8492232954 0.6436169114 -0.3191065241 0.6956495509
-20.0399563183 -1238.9058510455 -880.4509981413 -0.4703596176 0.5555711237 -0.6856402530
169.4503735334 -1223.4480842760 -833.6534913470 -0.2845281309 0.7584497703 0.5863426375
63.8512288440 -1167.3169530578 -1229.1406501549 0.0843269868 0.7661759329 0.6370740923
-128.8470839770 -1388.9924113730 -931.9586226516 -0.0404410973 -0.3062027421 0.9511069332
-125.0640122150 -1144.8878298101 -865.5819230684 0.1104536796 0.1972956523 0.9741018480
-6.2695026087 -1198.6504509290 -1354.7999235731 -0.3185562083 -0.6841970060 0.6560460343
22.7276260456 -1219.0749891916 -1159.4952107014 0.0741297691 0.7386822645 0.6699651405
170.3607192440 -1236.9680174046 -1149.1643415465 0.0407015748 0.7513991701 0.6585914279
61.1137183272 -1225.9770690932 -1086.5936392562 0.9457878866 0.2829595584 -0.1594338790
111.0981201325 -1164.7091152949 -1224.8530044180 0.0270969962 0.7624176992 0.6465175982
184.1461270461 -1608.7816237128 -889.9048411350 -0.4452757355 -0.4035207328 0.7993125406
-18.3061576384 -1379.1021395500 -969.5937928051 0.0427109126 0.6968794538 0.7159153615
139.4118680742 -1234.3916152216 -1050.4014669951 -0.3137853548 0.5976934717 -0.7377677581
260.3262023976 -1236.9649572333 -1149.1685535109 0.0051727901 0.7848217718 0.6196999506
36.6450026013 -1681.9000156016 -969.1197632420 -0.2206070624 -0.4141963539 0.8830480760
28.9183530783 -1070.7463947456 -972.9281067358 0.5186639736 0.7159960567 -0.4672658015
82.1742680651 -1230.3880061925 -901.9062102961 -0.7562457997 0.4636535161 0.4616467345
-14.2662632082 -1379.2237455870 -969.4264164544 0.0039897388 0.6675085978 0.7445914006
263.5435538461 -1269.7241244393 -1296.5598320910 -0.3225724003 -0.6972454905 0.6401529290
187.9159669647 -1182.9578655925 -874.6200177820 0.1663557386 0.5920185267 0.7885682167
162.2665293306 -1481.9345323675 -836.1723552040 -0.2543117746 0.5557113564 0.7915241055
291.5059149156 -1372.6230008502 -1079.5773847121 -0.9566042833 0.0261751624 -0.2902121742
-109.6766775543 -1189.9927336317 -842.1659591668 -0.9383527337 0.3420091685 0.0502381897
-194.4018502160 -1236.1055169873 -863.0186414821 -0.2961258484 -0.3503180675 0.8885869308
354.1348434325 -1287.1907987496 -1276.4198589235 0.6286264298 0.6447986089 -0.4348144038
211.2026896412 -1671.7996157351 -910.5122961038 -0.0422622043 -0.3804512454 0.9238348099
97.5547776128 -1595.9272784022 -916.7254671405 -0.1010072097 -0.3714131722 0.9229570949
186.5347551921 -1233.2348240901 -835.0874189880 0.8889225757 0.1578285303 0.4300079179
-33.4438914390 -1226.9029796867 -962.5022689455 -0.9276005576 0.3166522335 -0.1982134420
136.5494960635 -1503.9941022306 -872.2968292519 -0.3454962075 -0.2627342051 0.9008901754
100.3637659260 -1432.8961301547 -903.6321756004 0.0703772802 0.7672506611 0.6374742830
-235.0724155485 -1247.7498397947 -886.3427124881 0.2173995212 0.6209783593 -0.7530759095
-70.9224514750 -1171.2061668728 -814.2348696110 -0.2641491198 0.0356367745 0.9638232529
243.7977345164 -1173.1533889215 -914.4007559734 0.5946240301 0.7896136830 0.1514347859
194.4621672376 -1533.0938770510 -840.7679463991 -0.2538553987 -0.4463915158 0.8580746187
-51.1519152081 -1094.8828443264 -1135.0537226902 0.0611644790 0.8750695343 -0.4801168781
186.7680889170 -1591.1798332266 -867.1678505458 -0.4103054059 -0.4319942264 0.8031378850
57.9694366366 -1580.7169968420 -909.3509647832 -0.1087804806 -0.4557597115 0.8834307513
-18.5844720313 -1079.6309689623 -1104.3137158877 0.4095897684 0.7303083744 -0.5467045819
238.0747967196 -1193.0181397431 -978.4407623485 0.4674363082 0.7310537438 -0.4970550487
216.4005863069 -1413.4323094848 -949.8779342465 -0.0438729862 0.7750591976 0.6303637055
-74.0564439751 -1361.5066352214 -915.2458181852 0.4798786661 -0.4595812374 0.7473296141
-39.6871729991 -1021.7630917859 -951.8672231262 0.1570139595 0.9718768424 0.1755050419
-137.6717664896 -1226.8810228120 -1443.8307173564 0.9942925073 0.1025940241 -0.0292724465
-135.6319125332 -1160.6408774862 -841.0075003063 -0.8236953268 0.2664324054 0.5005394910
-137.2848133489 -1313.8110997962 -892.1191724721 -0.2571774530 -0.4264318649 0.8671883430
311.2007577177 -1256.9213368434 -1129.7140840322 0.0370727200 0.7562855462 0.6531904668
194.5050493326 -1578.5174586236 -868.7364012642 -0.3691254215 -0.4373379339 0.8200499709
54.2377193376 -1217.1649565071 -915.9166933635 -0.4318917924 -0.0154174003 0.9017936479
190.6711992030 -1187.3322153676 -1209.5200705121 0.0087248807 0.7675807167 0.6408929082
190.3745420578 -1441.1031784558 -892.3718925164 -0.0331391283 0.8033961998 0.5945219461
227.2375418534 -1236.7192681645 -881.8984761725 0.7228532271 -0.2303177251 0.6514882636
101.2518667185 -1471.3187341885 -855.5004364911 -0.1380679619 0.5036559891 0.8528000250
-82.3945800552 -1265.6455353177 -1459.4296977128 -0.1362243537 -0.7345680457 0.6647200251
196.7528770947 -1529.8792218240 -842.8412235685 -0.2297483008 -0.4121745612 0.8816619814
245.4682724727 -1191.8289478981 -963.3112170713 0.9010859246 0.3647997153 0.2344468474
150.0175289263 -1606.5010458136 -902.1719248441 -0.4491718020 -0.3888091214 0.8044079558
246.1893848225 -1394.4478681928 -1440.6417540410 -0.3252222731 -0.6705241681 0.6668041790
147.4170073280 -1696.9578021302 -959.0276332062 -0.3438158288 -0.4114196485 0.8441116921
345.3565025750 -1236.7760325510 -1214.7925941417 0.8515127016 0.4781873100 -0.2150883902
198.0662300213 -1230.1686605040 -867.9745633546 0.2614515656 -0.1433158185 0.9545174985
128.1960656879 -1229.7464348228 -884.9493575648 0.4150181713 0.6279482752 -0.6583622719
398.3768249690 -1418.7481457361 -1392.4790323836 -0.3478025425 -0.7006023197 0.6230487791
150.3024717311 -1282.1736176269 -1085.8932156977 -0.1069353755 0.9917542686 -0.0706278708
-77.5297644339 -1123.0598777166 -825.6988065655 -0.3668437893 0.4148974580 0.8326378166
-8.3280153686 -1213.5282460432 -892.9258774589 0.7246767493 -0.0078969238 0.6890437197
39.5075150310 -1170.6559865121 -943.2717674970 -0.1658745541 0.7686348808 0.6178074557
237.4557044867 -1170.9352542339 -958.9837067425 0.4602825779 0.8738479779 0.1566194752
170.3584228253 -1257.8833160069 -1120.3769026889 0.0320059839 0.7907839419 0.6112580258
-178.0697374330 -1169.3700910127 -836.7875655357 -0.2349354036 -0.2116957672 0.9486781637
48.5228750072 -1650.3340617673 -950.2138671497 -0.2390601177 -0.4517322676 0.8595279044
131.0050927166 -1286.6436605486 -1088.8048150499 -0.0153181182 0.9166129138 0.3994823168
75.4926206179 -1244.8724130683 -1362.2782451180 -0.3100999761 -0.6826741934 0.6616599961
-79.1279657235 -1039.0855988417 -1022.9792081064 0.1439021318 0.8324779331 -0.5350445472
225.8559277108 -1489.1809344911 -998.4042879754 -0.9647445272 0.0505406516 -0.2582898369
-149.1929271516 -1108.3862343467 -849.1032478313 -0.2275400297 0.4550394233 0.8609092043
-89.4749701285 -1067.9765648446 -869.7235391970 -0.0110867530 0.7528237892 0.6581287309
-0.1798054243 -1289.2620631546 -921.1443781438 0.3869569233 -0.5018739927 0.7735546748
-178.6562112612 -1094.4606829370 -855.6912679710 -0.1649530571 0.5020900702 0.8489381899
66.2159157586 -1217.5015238652 -927.9759476582 -0.8227536904 0.0794741052 0.5628145623
-18.1473793991 -1124.5710352296 -841.0637297775 0.2903954242 0.9104326469 0.2945893636
25.5315939516 -1087.1770179275 -1074.4830941905 0.9912549038 0.1128611044 -0.0683819191
221.1473660823 -1370.7583407589 -950.6173044757 0.2624790977 -0.3535705121 0.8978266070
-147.5979906752 -1191.3600926061 -836.6600501519 -0.3542359199 -0.2453530696 0.9023961349
215.3045512866 -1415.6652508734 -927.3841961352 0.0107821151 0.8572390266 0.5148057859
97.0060318230 -1231.8119075467 -1019.3743898548 0.0663599845 -0.5503401875 0.8322992434
-95.3017811806 -1229.2061899791 -833.0068812534 -0.2808319497 -0.2523170402 0.9259965050
49.1373641316 -1336.6696630453 -996.0466419453 -0.2776530634 -0.3178062774 0.9065913889
-128.5907191597 -1090.5023520649 -860.4117917190 -0.4848314750 0.2042969746 0.8504123629
241.9677433871 -1242.1920939734 -910.7713805499 0.9133264530 -0.0872451230 0.3977726472
-87.1732977704 -1296.1567779951 -874.1068906098 -0.1959341419 0.5625187519 -0.8032325105
61.0536554638 -1168.7958581921 -941.4328972710 0.1163560424 0.8050866184 0.5816328810
168.4685595493 -1219.8825682036 -855.1154851559 -0.4515298529 0.5697929868 -0.6866270780
10.3466547414 -1383.8977276922 -954.9460753412 0.0191657843 0.7275228486 0.6858157023
149.2895867019 -1271.6167339842 -910.2056402209 -0.6474457522 -0.4607933221 0.6070284279
80.3427773606 -1448.8228068020 -881.7467356280 0.0115335827 0.7986269504 0.6017158553
228.2992670493 -1381.8234972408 -955.7977259797 0.4942219283 -0.1170043222 0.8614259540
130.1508055915 -1461.5948827171 -864.4270202429 -0.0269638996 0.7389045911 0.6732703420
-160.4235070738 -1119.1649708261 -877.7976600811 -0.5115759057 -0.3087847082 0.8018367020
112.4113391536 -1508.3229466620 -860.2869131463 0.2755219390 0.5033226906 -0.8189956839
172.4669602550 -1184.1992888179 -1205.9041084394 0.0050567309 0.7558716590 0.6547002860
201.7138818321 -1435.3076507886 -876.1732560438 -0.0353831708 0.8030119181 0.5949116663
25.0207583656 -1180.1491455014 -1149.6703647408 -0.9976995381 -0.0347587569 0.0582018944
136.8297284211 -1275.7637604062 -1366.9370469743 -0.2985243826 -0.6980179561 0.6508871838
174.7602730750 -1414.0392143025 -913.4598781147 -0.3464317505 0.2486549578 0.9045196262
40.3692481699 -1371.1671396897 -972.4682265049 0.0015332250 0.7667749207 0.6419142234
196.7599834606 -1600.7811433224 -881.7350363179 -0.4128052456 -0.4182781551 0.8090953060
24.1225909800 -1339.7497524798 -1008.3942136008 0.1796415623 0.0343541788 0.9831320865
-139.6804766738 -1053.6211116685 -884.8173937668 -0.0654769427 0.7421319654 0.6670479112
-11.1122963184 -1052.3356922818 -1015.1931148823 0.2087003755 0.9547787060 -0.2117587682
220.3637864027 -1192.2707014932 -1202.7228274943 0.0717189648 0.8127953028 0.5781177958
-147.1556542145 -1392.8807602126 -933.6363639640 -0.0718862668 0.4408328702 0.8947059546
369.3755857614 -1330.9845759816 -1304.4976752191 -0.6994758132 -0.5836371075 0.4124334048
-50.2208102424 -1468.7904703471 -914.9535103079 -0.7182822259 -0.2634066644 0.6439624004
46.3219564738 -1114.5106754244 -985.9585978196 0.8967762077 0.0974564337 0.4316186706
-74.8463034993 -1066.3691673946 -1064.7582920112 0.0898895161 0.9923322496 -0.0848326661
98.2018777338 -1455.2433890135 -864.7943536415 0.0290270077 0.6909467670 0.7223226412
180.1532763449 -1278.4640384528 -1100.1784704404 0.0993749841 0.8536501367 0.5112788443
-161.0532338917 -1164.0892441674 -838.0734320288 -0.3624316123 -0.1485340579 0.9200983426
7.0200499246 -1184.4920336179 -928.1634967424 0.0957942291 0.9938965889 0.0547086482
143.9700368569 -1494.4976666578 -843.4474796476 -0.4249725390 -0.1240686298 0.8966634353
91.2548105568 -1496.7238862881 -865.3924849630 -0.1636941167 -0.4198380961 0.8927150773
0.3400636183 -1433.6133936074 -894.5654882584 0.0224219846 0.7440424419 0.6677560178
330.3203918279 -1220.0525771476 -1172.4464476930 0.3925063486 0.7437922455 0.5410285222
183.9473494905 -1239.4172816121 -829.1164491972 0.7427724092 0.3156588199 0.5904647809
-69.9783350130 -1286.1658688335 -867.2043957221 0.6001080881 -0.4331269096 0.6725112362
240.8359770622 -1200.3019154262 -914.7288060434 0.9613435228 0.0992394113 0.2568465894
-53.3751600720 -1140.7812412601 -1183.9944411588 -0.1567043464 -0.6784941794 0.7176972874
82.7142381925 -1241.3978879005 -1035.4598206293 -0.3272953770 -0.5823784736 0.7441189755
86.2930916825 -1237.2663964189 -880.9517705804 -0.8942748898 0.4356677790 0.1023035082
-142.7699254664 -1173.9693064509 -885.5425994045 0.4199634440 -0.2830791362 0.8622626678
230.2279820204 -1391.9190723329 -951.8106851052 0.5317017237 0.1962969469 0.8238693984
130.6269398854 -1159.0843000760 -1240.6370929086 0.0998293712 0.9624343499 0.2524959776
-30.0272546705 -1392.6188325980 -944.0642290883 0.0538464629 0.7342663211 0.6767226375
124.9389050022 -1248.3030043441 -1048.3278594572 -0.4590037875 0.5461022565 -0.7007766038
71.1531198135 -1267.8678470532 -1064.6632637883 0.4436333231 0.6463075722 -0.6208671330
319.9825585911 -1221.1099986836 -1155.8216079388 0.3029375844 0.6982563490 0.6485883833
365.1102292066 -1320.0032321271 -1296.5023358568 -0.7115882847 -0.5746494516 0.4042525459
290.3094497503 -1216.0621535911 -1177.9387945312 -0.0347532002 0.7723515239 0.6342439110
-85.3328864147 -1042.3782423357 -1116.8165326085 -0.5764959429 0.7235446188 -0.3796519623
138.5033174500 -1274.0952444272 -911.4303101629 -0.7356015399 -0.4175683446 0.5334107723
-2.4514819691 -1041.1536476202 -1034.0598019530 0.5471229626 0.7262410362 -0.4162095880
130.2584467273 -1287.3579786515 -1083.6004377931 -0.1002467943 0.9902993257 0.0962175955
197.8279982319 -1172.1648210867 -993.0612196475 0.4007029480 0.6707179180 -0.6241591319
167.6734864493 -1167.8210508856 -900.3858200597 0.0003830705 0.9085854343 0.4176988889
196.8991985011 -1517.5110647213 -836.7813883899 0.1467964649 -0.3214975855 0.9354625061
342.0855310522 -1241.3848022123 -1224.0695461765 -0.7289864729 -0.5493756888 0.4083687976
251.0224976075 -1197.4518348204 -972.2293664191 0.9487085391 0.2603557746 0.1793515500
